# .PCD v0.7 - Point Cloud Data file format
VERSION 0.7
FIELDS x y z
SIZE 4 4 4
TYPE F F F
COUNT 1 1 1
WIDTH 1586
HEIGHT 1
VIEWPOINT 0 0 0 1 0 0 0
POINTS 1586
DATA ascii
0.094621286 0.32443708 1.1866893
0.099319853 0.3255249 1.1866893
0.10370116 0.3255249 1.1866893
0.11043011 0.33259562 1.1668952
0.17503759 0.50664401 1.1668952
nan nan 1.8576553
nan nan -inf
nan nan -inf
nan nan -inf
nan nan -inf
nan nan -inf
nan nan -inf
nan nan -inf
nan nan -inf
nan nan 1.8478168
0.25273114 0.51208305 1.8478168
0.2582446 0.50936353 1.8478168
0.26510024 0.50936353 1.8576553
0.27340785 0.51208305 1.8576553
0.28030005 0.51208305 1.8576553
0.28566712 0.50936353 1.8576553
0.29252273 0.50936353 1.8576553
0.29937834 0.50936353 1.8576553
0.30623397 0.50936353 1.8478168
0.31308961 0.50936353 1.8478168
0.31994522 0.50936353 1.8478168
0.32680085 0.50936353 1.8478168
0.33187506 0.50664401 1.8478168
0.33869407 0.50664401 1.8478168
0.34551314 0.50664401 1.8478168
0.35233214 0.50664401 1.8478168
0.33871633 0.47781724 1.7434757
0.34337944 0.47536972 1.7346122
0.34977752 0.47536972 1.7346122
0.3561756 0.47536972 1.7346122
0.36257368 0.47536972 1.7346122
0.37087151 0.47781724 1.7346122
0.37730256 0.47781724 1.7346122
0.40906832 0.50936353 1.8576553
0.41592395 0.50936353 1.8478168
0.42277956 0.50936353 1.8478168
0.4296352 0.50936353 1.8478168
0.43649083 0.50936353 1.8478168
0.44334641 0.50936353 1.8478168
0.44779843 0.50664401 1.8478168
0.45461744 0.50664401 1.8478168
0.46391329 0.50936353 1.8478168
0.47076893 0.50936353 1.8576553
0.47762457 0.50936353 1.8576553
0.48189351 0.50664401 1.8478168
0.48871255 0.50664401 1.8478168
0.49553156 0.50664401 1.8478168
0.50504708 0.50936353 1.8478168
0.51190263 0.50936353 1.8478168
0.51598865 0.50664401 1.8478168
0.52280766 0.50664401 1.8379774
0.52962667 0.50664401 1.8379774
0.53356618 0.50392449 1.8281372
0.54034859 0.50392449 1.8281372
0.54713106 0.50392449 1.8281372
0.55391347 0.50392449 1.8379774
0.56372178 0.50664401 1.8478168
0.57054079 0.50664401 1.8379774
0.57426077 0.50392449 1.8379774
0.58104318 0.50392449 1.8379774
0.5878256 0.50392449 1.8379774
0.59460795 0.50392449 1.8379774
0.60139036 0.50392449 1.8379774
0.60817283 0.50392449 1.8281372
0.61495525 0.50392449 1.8281372
0.62173766 0.50392449 1.8281372
0.62852007 0.50392449 1.8281372
0.63530248 0.50392449 1.8281372
0.64208496 0.50392449 1.8281372
0.64886737 0.50392449 1.8281372
0.65211141 0.50120503 1.8281372
0.65885723 0.50120503 1.8281372
0.66921455 0.50392449 1.8281372
0.67599702 0.50392449 1.8281372
0.67909467 0.50120503 1.8281372
0.68584049 0.50120503 1.8281372
0.6925863 0.50120503 1.8281372
0.69933212 0.50120503 1.8281372
0.71374023 0.50664401 1.8281372
0.72055924 0.50664401 1.8379774
0.72737831 0.50664401 1.8379774
0.73419726 0.50664401 1.8379774
0.74101633 0.50664401 1.8379774
0.74783528 0.50664401 1.8379774
0.75465435 0.50664401 1.8379774
0.75738603 0.50392449 1.8379774
0.76416844 0.50392449 1.8379774
0.76679033 0.50120503 1.8281372
0.77353609 0.50120503 1.8281372
0.7802819 0.50120503 1.8281372
0.78702778 0.50120503 1.8281372
0.79377359 0.50120503 1.8281372
0.80486298 0.50392449 1.8281372
0.81164539 0.50392449 1.8281372
0.8184278 0.50392449 1.8281372
0.82521021 0.50392449 1.8379774
0.83199263 0.50392449 1.8379774
0.83877504 0.50392449 1.8379774
0.85012066 0.50664401 1.8478168
0.85693967 0.50664401 1.8379774
0.86839509 0.50936353 1.8379774
0.8752507 0.50936353 1.8478168
0.8821063 0.50936353 1.8478168
0.88896197 0.50936353 1.8478168
0.89581758 0.50936353 1.8478168
0.89785379 0.50664401 1.8478168
0.90467286 0.50664401 1.8478168
0.91149181 0.50664401 1.8478168
0.92324001 0.50936353 1.8478168
0.92512983 0.50664401 1.8379774
0.9319489 0.50664401 1.8379774
0.93372893 0.50392449 1.8379774
0.94051135 0.50392449 1.8281372
0.94729376 0.50392449 1.8281372
0.95407611 0.50392449 1.8281372
0.96085852 0.50392449 1.8281372
nan nan -inf
nan nan -inf
nan nan -inf
nan nan -inf
nan nan -inf
nan nan -inf
nan nan -inf
nan nan -inf
nan nan -inf
nan nan -inf
nan nan -inf
nan nan -inf
nan nan -inf
nan nan -inf
nan nan -inf
nan nan -inf
nan nan -inf
-0.68133205 0.31995833 1.1550171
-0.67708248 0.31995833 1.1550171
-0.67283297 0.31995833 1.1550171
-0.66627991 0.31885597 1.1510575
-0.66204506 0.31885597 1.1510575
-0.65781009 0.31885597 1.1510575
-0.65583485 0.31995833 1.1550171
-0.65158534 0.31995833 1.1550171
-0.64956605 0.32106069 1.1589766
-0.64308625 0.31995833 1.1550171
-0.63883668 0.31995833 1.1550171
-0.63677347 0.32106069 1.1589766
-0.63468105 0.32216305 1.1589766
-0.63471639 0.32436776 1.1668952
-0.63255066 0.32547009 1.1748133
-0.62822789 0.32547009 1.1748133
-0.62390518 0.32547009 1.1748133
-0.61958241 0.32547009 1.1748133
-0.61109197 0.32326537 1.162936
-0.60679853 0.32326537 1.162936
-0.60045052 0.32216305 1.162936
-0.59617168 0.32216305 1.162936
-0.59391814 0.32326537 1.1668952
-0.59163535 0.32436776 1.1708543
-0.58732724 0.32436776 1.1708543
-0.58301914 0.32436776 1.1708543
-0.57871109 0.32436776 1.1708543
-0.58025926 0.32767481 1.1708543
-0.57590723 0.32767481 1.178772
-0.40715498 0.23342353 0.83582938
-0.40214655 0.23232116 0.83582938
-0.39811423 0.23176999 0.83781469
-0.39503598 0.23176999 0.83781469
-0.39195773 0.23176999 0.83781469
-0.38887945 0.23176999 0.83781469
-0.38580123 0.23176999 0.83781469
-0.38272294 0.23176999 0.83781469
-0.37964466 0.23176999 0.83781469
-0.37656644 0.23176999 0.83582938
-0.37348816 0.23176999 0.83582938
-0.37129077 0.23232116 0.83979988
-0.37082586 0.2339747 0.84377027
-0.36858457 0.23452589 0.84774047
-0.36675808 0.23535264 0.84774047
-0.36363223 0.23535264 0.84774047
-0.3638835 0.23755735 0.856673
-0.36533165 0.24058884 0.856673
-0.36504 0.24251795 0.87652051
-0.36181897 0.24251795 0.87652051
-0.36430293 0.24637619 0.88346636
-0.37960723 0.25905326 0.88545078
-0.38056853 0.26208472 0.93405902
-0.37827721 0.2629115 0.93405902
-0.37557107 0.26346266 0.9519099
-0.39659128 0.28082478 0.98264676
-0.39401805 0.2816515 1.0173397
-0.39027733 0.2816515 1.0173397
-0.38880584 0.28330505 1.0203129
nan nan 1.0203129
nan nan -inf
nan nan -inf
nan nan -inf
nan nan 1.3834542
-0.5001812 0.38692638 1.3834542
-0.49504223 0.38692638 1.3834542
-0.49199679 0.38857988 1.3953087
-0.48683593 0.38857988 1.4012353
-0.483383 0.38995782 1.4061741
-0.47820377 0.38995782 1.4061741
-0.47503033 0.39161137 1.4121003
-0.61927515 0.51617742 1.8379774
-0.60914981 0.51342154 1.8379774
-0.6023308 0.51342154 1.8379774
-0.59231526 0.51066566 1.8379774
-0.58553284 0.51066566 1.6045339
-0.57875037 0.51066566 1.6045339
-0.51578981 0.4605085 1.6203088
-0.50967354 0.4605085 1.6508666
-0.49873564 0.45609909 1.6350958
-0.49029642 0.45389438 1.6272098
-0.4819158 0.45168969 1.6272098
-0.47591668 0.45168969 1.6203088
-0.46991754 0.45168969 1.6203088
-0.46193704 0.44976053 1.6203088
-0.45596352 0.44976053 1.6203088
-0.44999003 0.44976053 1.6203088
-0.44401652 0.44976053 1.6124215
-0.43804303 0.44976053 1.6124215
-0.43206951 0.44976053 1.6124215
-0.28197533 0.29763567 1.074808
-0.27802226 0.29763567 1.0678736
-0.27406919 0.29763567 1.0678736
-0.26836538 0.29570651 1.0678736
-0.26443794 0.29570651 1.0678736
-0.2590538 0.29405302 1.0619297
-0.25514832 0.29405302 1.0619297
-0.25124288 0.29405302 1.0619297
-0.2473374 0.29405302 1.0619297
-0.24411637 0.29487979 1.0619297
-0.24019992 0.29487979 1.0619297
-0.23628347 0.29487979 1.0649017
-0.23236701 0.29487979 1.0649017
-0.22909105 0.29570651 1.0649017
-0.22516361 0.29570651 1.0678736
-0.22123618 0.29570651 1.0678736
-0.21730874 0.29570651 1.0678736
-0.21417677 0.2968089 1.0718361
-0.2102347 0.2968089 1.0718361
-0.20686726 0.29763567 1.0718361
-0.20366573 0.298738 1.0787702
-0.20025072 0.29956478 1.0787702
-0.19627205 0.29956478 1.0817418
-0.19229336 0.29956478 1.0817418
-0.18883441 0.30039155 1.0847133
-0.18552308 0.30149388 1.0847133
-0.18151878 0.30149388 1.0886753
-0.17800127 0.30232066 1.0916466
-0.17462039 0.30342302 1.0956082
-0.17059046 0.30342302 1.0956082
-0.16716568 0.30452538 1.0956082
-0.16356398 0.30535215 1.102541
-0.15950844 0.30535215 1.102541
-0.15601408 0.30645448 1.102541
-0.15194391 0.30645448 1.1065022
-0.14787373 0.30645448 1.1065022
-0.14419152 0.30728126 1.1094731
-0.14061297 0.30838361 1.1094731
-0.13700518 0.30948597 1.1134341
-0.13324974 0.31031275 1.1173952
-0.12912832 0.31031275 1.1203657
-0.1250069 0.31031275 1.1203657
-0.1213149 0.31141508 1.1243263
-0.11717883 0.31141508 1.1243263
-0.11344291 0.31251743 1.128287
-0.10996686 0.31444657 1.1352177
-0.10579053 0.31444657 1.1352177
-0.10197042 0.3155489 1.1391778
-0.097779445 0.3155489 1.1391778
-0.093588479 0.3155489 1.1391778
-0.090022117 0.31775361 1.1431379
-0.085801862 0.31775361 1.1470977
-0.081864633 0.31885597 1.1470977
-0.077629738 0.31885597 1.1510575
-0.073394842 0.31885597 1.1510575
-0.069159955 0.31885597 1.1470977
-0.06492506 0.31885597 1.1470977
-0.060690168 0.31885597 1.1510575
-0.056650456 0.31995833 1.1550171
-0.052400921 0.31995833 1.1550171
-0.04831728 0.32106069 1.1589766
-0.044204362 0.32216305 1.1589766
-0.039925545 0.32216305 1.1589766
-0.035768703 0.32326537 1.162936
-0.031582579 0.32436776 1.162936
-0.027274478 0.32436776 1.1708543
-0.022966381 0.32436776 1.1708543
-0.01872169 0.32547009 1.1708543
-0.014398951 0.32547009 1.1748133
-0.010076213 0.32547009 1.1748133
-0.0057729594 0.32657245 1.178772
-0.001435579 0.32657245 1.178772
0.0029018011 0.32657245 1.178772
0.0072391811 0.32657245 1.178772
0.011576561 0.32657245 1.178772
0.015913941 0.32657245 1.178772
0.020251321 0.32657245 1.178772
0.0245887 0.32657245 1.178772
0.02892608 0.32657245 1.178772
0.033263464 0.32657245 1.178772
0.037854686 0.32877716 1.1827308
0.042221349 0.32877716 1.1866893
0.046588011 0.32877716 1.1866893
0.051125523 0.32987952 1.1906477
0.055738684 0.33125746 1.1906477
0.060138285 0.33125746 1.1906477
0.06453789 0.33125746 1.1906477
0.068421319 0.32877716 1.1866893
0.072787985 0.32877716 1.1866893
0.077154644 0.32877716 1.1866893
0.08152131 0.32877716 1.1866893
0.085887969 0.32877716 1.1866893
0.090935513 0.33125746 1.1906477
0.14696836 0.51066566 1.8281372
0.15375079 0.51066566 1.8379774
0.10595365 0.33704484 1.216374
0.11043011 0.33704484 1.1668952
0.17503759 0.51342154 1.1668952
nan nan 1.8576553
nan nan -inf
nan nan -inf
nan nan -inf
nan nan -inf
nan nan -inf
nan nan -inf
nan nan -inf
nan nan -inf
nan nan 1.8379774
0.25420755 0.52196479 1.8379774
0.2582446 0.51617742 1.8478168
0.26510024 0.51617742 1.8478168
0.27195585 0.51617742 1.8576553
0.27881148 0.51617742 1.8478168
0.28414193 0.51342154 1.8478168
0.29096094 0.51342154 1.8478168
0.29937834 0.51617742 1.8478168
0.30623397 0.51617742 1.8478168
0.31308961 0.51617742 1.8478168
0.31823704 0.51342154 1.8478168
0.32505605 0.51342154 1.8478168
0.33009368 0.51066566 1.8379774
0.33687606 0.51066566 1.8379774
0.34551314 0.51342154 1.8281372
0.35233214 0.51342154 1.8281372
0.33871633 0.48420912 1.7434757
0.34337944 0.48172885 1.7257479
0.34977752 0.48172885 1.7257479
0.3561756 0.48172885 1.7346122
0.36257368 0.48172885 1.7346122
0.37087151 0.48420912 1.7346122
0.37730256 0.48420912 1.7346122
0.40906832 0.51617742 1.8478168
0.41370332 0.51342154 1.818296
0.42052233 0.51342154 1.818296
0.42734134 0.51342154 1.8379774
0.43182993 0.51066566 1.8379774
0.43861237 0.51066566 1.8379774
0.44299114 0.50790977 1.8281372
0.44973695 0.50790977 1.8281372
0.45895961 0.51066566 1.8379774
0.46574202 0.51066566 1.8379774
0.47252443 0.51066566 1.8379774
0.48189351 0.51342154 1.8478168
0.48871255 0.51342154 1.8379774
0.49553156 0.51342154 1.8379774
0.49965411 0.51066566 1.8379774
0.50643653 0.51066566 1.8379774
0.513219 0.51066566 1.8379774
0.52000141 0.51066566 1.8281372
0.52678382 0.51066566 1.8281372
0.53068674 0.50790977 1.8281372
0.53743261 0.50790977 1.8281372
0.54417837 0.50790977 1.8281372
0.55092418 0.50790977 1.8281372
0.56069589 0.51066566 1.8379774
0.5674783 0.51066566 1.8379774
0.57426077 0.51066566 1.8379774
0.58104318 0.51066566 1.8379774
0.5878256 0.51066566 1.8379774
0.59460795 0.51066566 1.8379774
0.60139036 0.51066566 1.8379774
0.60817283 0.51066566 1.8281372
0.61163652 0.50790977 1.818296
0.61838239 0.50790977 1.818296
0.62512821 0.50790977 1.818296
0.63187402 0.50790977 1.818296
0.63861978 0.50790977 1.8281372
0.6453656 0.50790977 1.8281372
0.65211141 0.50790977 1.8281372
0.65885723 0.50790977 1.8281372
0.6656031 0.50790977 1.8281372
0.67234892 0.50790977 1.8281372
0.67909467 0.50790977 1.8281372
0.68584049 0.50790977 1.8281372
0.6925863 0.50790977 1.8281372
0.69933212 0.50790977 1.818296
0.70990908 0.51066566 1.818296
0.71669149 0.51066566 1.8281372
0.72347391 0.51066566 1.8281372
0.73025632 0.51066566 1.8379774
0.73703879 0.51066566 1.8379774
0.7438212 0.51066566 1.8281372
0.75465435 0.51342154 1.8281372
0.75738603 0.51066566 1.8281372
0.76416844 0.51066566 1.8281372
0.76679033 0.50790977 1.8281372
0.77353609 0.50790977 1.8281372
0.7802819 0.50790977 1.818296
0.78702778 0.50790977 1.818296
0.79377359 0.50790977 1.818296
0.80051941 0.50790977 1.818296
0.80726522 0.50790977 1.818296
0.81401104 0.50790977 1.818296
0.82075679 0.50790977 1.818296
0.82750267 0.50790977 1.8281372
0.83877504 0.51066566 1.8281372
0.84555745 0.51066566 1.8281372
0.85233986 0.51066566 1.8379774
0.86375868 0.51342154 1.8379774
0.8752507 0.51617742 1.8478168
0.8821063 0.51617742 1.8379774
0.88896197 0.51617742 1.8379774
0.88625199 0.51066566 1.8281372
0.89303434 0.51066566 1.8281372
0.89496082 0.50790977 1.8281372
0.90170664 0.50790977 1.8281372
0.91831088 0.51342154 1.8281372
0.92016405 0.51066566 1.8379774
0.92694646 0.51066566 1.8281372
0.93372893 0.51066566 1.8281372
0.93543571 0.50790977 1.818296
0.94218147 0.50790977 1.818296
0.95407611 0.51066566 1.8281372
0.96085852 0.51066566 1.8281372
nan nan -inf
nan nan -inf
nan nan -inf
nan nan -inf
nan nan -inf
nan nan -inf
nan nan -inf
nan nan -inf
nan nan -inf
nan nan -inf
nan nan -inf
nan nan -inf
nan nan -inf
nan nan -inf
nan nan -inf
nan nan -inf
nan nan -inf
-0.67898458 0.32306507 1.1510575
-0.67474973 0.32306507 1.1470977
-0.67051482 0.32306507 1.1470977
-0.66627991 0.32306507 1.1510575
-0.66204506 0.32306507 1.1510575
-0.65781009 0.32306507 1.1510575
-0.65357524 0.32306507 1.1510575
-0.64934033 0.32306507 1.1510575
-0.64733577 0.324182 1.1550171
-0.64308625 0.324182 1.1510575
-0.63883668 0.324182 1.1510575
-0.63677347 0.32529888 1.1589766
-0.63468105 0.32641581 1.1589766
-0.63471639 0.32864961 1.1668952
-0.63469309 0.33088341 1.1748133
-0.63035566 0.33088341 1.1748133
-0.62601829 0.33088341 1.1748133
nan nan -inf
nan nan 1.1668952
-0.60679853 0.32753271 1.1589766
-0.60045052 0.32641581 1.1589766
-0.59617168 0.32641581 1.162936
-0.5918929 0.32641581 1.162936
-0.5896247 0.32753271 1.1668952
-0.5853312 0.32753271 1.1668952
-0.58103782 0.32753271 1.162936
-0.57871109 0.32864961 1.162936
-0.57440299 0.32864961 1.1668952
-0.40541157 0.2337126 0.83185875
-0.40234795 0.2337126 0.83185875
-0.39928433 0.2337126 0.83185875
-0.39622071 0.2337126 0.83384413
-0.39409652 0.23427103 0.83582938
-0.39102557 0.23427103 0.83582938
-0.38887945 0.2348295 0.83582938
-0.38580123 0.2348295 0.83582938
-0.38272294 0.2348295 0.83582938
-0.37964466 0.2348295 0.83582938
-0.37656644 0.2348295 0.83582938
-0.37348816 0.2348295 0.83582938
-0.37040991 0.2348295 0.83781469
-0.36995232 0.23650487 0.84178513
-0.36858457 0.23762177 0.84575534
-0.36675808 0.23845942 0.84774047
-0.36363223 0.23845942 0.84774047
-0.36683851 0.24264784 0.84774047
-0.36909798 0.24627779 0.85865784
-0.36794373 0.24767391 0.88346636
-0.36634171 0.24879082 0.88545078
-0.36430293 0.2496285 0.88743514
-0.37879956 0.26191446 0.92909998
-0.38056853 0.26554441 0.93108362
-0.37827721 0.2663821 0.94992667
-0.39207107 0.27866808 0.97967261
-0.39425609 0.28285646 0.98264676
-0.39286152 0.28453183 1.0143665
-0.39027733 0.28536949 1.0173397
-0.3899405 0.28788254 1.0262591
nan nan 1.0292321
nan nan -inf
nan nan -inf
nan nan -inf
nan nan -inf
-0.50231868 0.39370939 1.3834542
-0.49715775 0.39370939 1.3834542
-0.49199679 0.39370939 1.3953087
-0.48856226 0.39510551 1.4012353
-0.48543271 0.39678088 1.4121003
-0.48023149 0.39678088 1.4121003
-0.47503033 0.39678088 1.4121003
-0.61596882 0.520199 1.8379774
-0.60588008 0.51740676 1.8379774
-0.59909767 0.51740676 1.8379774
-0.58911872 0.51461452 1.8281372
-0.5823729 0.51461452 1.5976315
-0.57562709 0.51461452 1.5976315
-0.51332039 0.46435368 1.6203088
-0.50723344 0.46435368 1.6508666
-0.49873564 0.46211988 1.6429815
-0.49029642 0.45988604 1.6272098
-0.4819158 0.45765227 1.6272098
-0.47591668 0.45765227 1.6272098
-0.46991754 0.45765227 1.6203088
-0.46193704 0.45569766 1.6203088
-0.45596352 0.45569766 1.6203088
-0.44999003 0.45569766 1.6124215
-0.44401652 0.45569766 1.6124215
-0.43804303 0.45569766 1.5976315
-0.43206951 0.45569766 1.5976315
-0.42609602 0.45569766 1.0787702
-0.27905196 0.30268154 1.074808
-0.27508426 0.30268154 1.074808
-0.26936585 0.30072698 1.0718361
-0.26443794 0.29961005 1.0678736
-0.25978217 0.29877239 1.0649017
-0.25514832 0.29793471 1.0619297
-0.25124288 0.29793471 1.0619297
-0.2473374 0.29793471 1.0619297
-0.24411637 0.29877239 1.0619297
-0.24019992 0.29877239 1.0619297
-0.23628347 0.29877239 1.0649017
-0.23301847 0.29961005 1.0649017
-0.22909105 0.29961005 1.0649017
-0.22516361 0.29961005 1.0678736
-0.22123618 0.29961005 1.0678736
-0.21811886 0.30072698 1.0678736
-0.21417677 0.30072698 1.0718361
-0.2102347 0.30072698 1.0718361
-0.20686726 0.30156466 1.074808
-0.2042294 0.30351922 1.0817418
-0.20025072 0.30351922 1.0817418
-0.19681372 0.3043569 1.0817418
-0.19282407 0.3043569 1.0817418
-0.18883441 0.3043569 1.0847133
-0.18552308 0.3054738 1.0847133
-0.18201655 0.30631149 1.0886753
-0.17800127 0.30631149 1.0916466
-0.17462039 0.30742839 1.0956082
-0.17121023 0.30854532 1.0956082
-0.16716568 0.30854532 1.0995698
-0.16356398 0.309383 1.102541
-0.15950844 0.309383 1.102541
-0.15601408 0.31049988 1.1065022
-0.15235384 0.31133756 1.1094731
-0.14827266 0.31133756 1.1094731
-0.14470878 0.31245446 1.1094731
-0.14111562 0.31357139 1.1134341
-0.13737117 0.31440908 1.1173952
-0.1337231 0.31552598 1.1203657
-0.12958704 0.31552598 1.1203657
-0.12545097 0.31552598 1.1203657
-0.12174433 0.31664285 1.128287
-0.11800842 0.31775978 1.1322474
-0.11414318 0.31859747 1.1322474
-0.10996686 0.31859747 1.1352177
-0.10616139 0.31971437 1.1352177
-0.10197042 0.31971437 1.1391778
-0.097779445 0.31971437 1.1391778
-0.093915425 0.3208313 1.1431379
-0.090022117 0.32194817 1.1470977
-0.085801862 0.32194817 1.1470977
-0.081864633 0.32306507 1.1510575
-0.077629738 0.32306507 1.1510575
-0.073648587 0.324182 1.1510575
-0.069399059 0.324182 1.1510575
-0.065149523 0.324182 1.1510575
-0.060899988 0.324182 1.1550171
-0.056650456 0.324182 1.1550171
-0.052581452 0.32529888 1.1589766
-0.048483178 0.32641581 1.1589766
-0.044204362 0.32641581 1.162936
-0.040062156 0.32753271 1.1668952
-0.035890676 0.32864961 1.1708543
-0.031689908 0.32976651 1.1708543
-0.027367169 0.32976651 1.1748133
-0.02304443 0.32976651 1.1748133
-0.01872169 0.32976651 1.1748133
-0.014447719 0.33088341 1.1748133
-0.010110339 0.33088341 1.1748133
-0.0057729594 0.33088341 1.178772
-0.0014404251 0.33200032 1.178772
0.0029115963 0.33200032 1.178772
0.0072636171 0.33200032 1.178772
0.011615639 0.33200032 1.1827308
0.01596766 0.33200032 1.1827308
0.020319682 0.33200032 1.1827308
0.024754701 0.33311722 1.1827308
0.029023724 0.33200032 1.178772
0.033375744 0.33200032 1.178772
0.037981611 0.33423412 1.1866893
0.042362913 0.33423412 1.1906477
0.046744216 0.33423412 1.1906477
0.051339079 0.33563027 1.1955955
0.055738684 0.33563027 1.1955955
0.060138285 0.33563027 1.1955955
0.06453789 0.33563027 1.1955955
0.068650737 0.33423412 1.1866893
0.073032036 0.33423412 1.1866893
0.077413335 0.33423412 1.1906477
0.12730445 0.520199 1.8478168
0.13340352 0.51740676 1.8379774
0.14018595 0.51740676 1.8281372
0.14696836 0.51740676 1.8281372
0.15375079 0.51740676 1.8379774
0.16053322 0.51740676 1.8379774
0.16912152 0.5229913 1.8478168
0.17597714 0.5229913 1.8576553
nan nan -inf
nan nan -inf
nan nan -inf
nan nan -inf
nan nan -inf
nan nan -inf
nan nan -inf
nan nan -inf
nan nan -inf
nan nan 1.8281372
0.25420755 0.52885503 1.8281372
0.2582446 0.5229913 1.8478168
0.26510024 0.5229913 1.8478168
0.27050388 0.520199 1.8478168
0.27583429 0.51740676 1.8379774
0.28261673 0.51740676 1.8379774
0.28939915 0.51740676 1.8379774
0.29618159 0.51740676 1.8379774
0.30459899 0.520199 1.8379774
0.311418 0.520199 1.8478168
0.31652883 0.51740676 1.8379774
0.32156646 0.51461452 1.8281372
0.32831225 0.51461452 1.8281372
0.33324006 0.51182222 1.818296
0.33994928 0.51182222 1.818296
0.3447673 0.50902992 1.808454
0.33871633 0.490601 1.7434757
0.34161144 0.4855749 1.7257479
0.3479766 0.4855749 1.7090025
0.35434175 0.4855749 1.7090025
0.36257368 0.48808798 1.7257479
0.36897179 0.48808798 1.7257479
0.40221268 0.5229913 1.7257479
0.40906832 0.5229913 1.818296
0.4070414 0.51182222 1.818296
0.41375062 0.51182222 1.818296
0.42275369 0.51461452 1.8281372
0.42949951 0.51461452 1.8281372
0.43624532 0.51461452 1.8281372
0.44299114 0.51461452 1.8281372
0.44973695 0.51461452 1.8281372
0.45648277 0.51461452 1.8281372
0.46322858 0.51461452 1.8281372
0.4699744 0.51461452 1.8281372
0.47672021 0.51461452 1.8281372
0.48346606 0.51461452 1.8281372
0.49021187 0.51461452 1.8281372
0.49695769 0.51461452 1.8281372
0.50370347 0.51461452 1.818296
0.50767958 0.51182222 1.818296
0.51438886 0.51182222 1.818296
0.52394092 0.51461452 1.818296
0.53068674 0.51461452 1.818296
0.53743261 0.51461452 1.818296
0.54417837 0.51461452 1.818296
0.55092418 0.51461452 1.818296
0.56069589 0.51740676 1.8379774
0.5674783 0.51740676 1.8281372
0.57116163 0.51461452 1.8281372
0.5779075 0.51461452 1.8281372
0.5878256 0.51740676 1.8379774
0.59460795 0.51740676 1.8379774
0.59814489 0.51461452 1.8281372
0.6048907 0.51461452 1.818296
0.61163652 0.51461452 1.818296
0.61838239 0.51461452 1.818296
0.62173623 0.51182222 1.808454
0.62844545 0.51182222 1.808454
0.6351546 0.51182222 1.808454
0.6453656 0.51461452 1.818296
0.65211141 0.51461452 1.8281372
0.65528232 0.51182222 1.808454
0.66199148 0.51182222 1.808454
0.66870075 0.51182222 1.818296
0.67909467 0.51461452 1.8281372
0.68211913 0.51182222 1.818296
0.68882835 0.51182222 1.818296
0.69933212 0.51461452 1.818296
0.70607799 0.51461452 1.818296
0.71282381 0.51461452 1.8281372
0.71956962 0.51461452 1.818296
0.72631538 0.51461452 1.818296
0.73306119 0.51461452 1.818296
0.73980701 0.51461452 1.818296
0.74655288 0.51461452 1.818296
0.7532987 0.51461452 1.818296
0.76004452 0.51461452 1.818296
0.76262975 0.51182222 1.818296
0.76933891 0.51182222 1.818296
0.77604818 0.51182222 1.818296
0.78275734 0.51182222 1.818296
0.78946656 0.51182222 1.818296
0.80051941 0.51461452 1.818296
0.80726522 0.51461452 1.818296
0.81401104 0.51461452 1.818296
0.82075679 0.51461452 1.818296
0.82750267 0.51461452 1.818296
0.83424848 0.51461452 1.818296
0.84555745 0.51740676 1.8281372
0.85233986 0.51740676 1.8281372
0.86375868 0.520199 1.8281372
0.87057769 0.520199 1.8379774
0.8773967 0.520199 1.8379774
0.87472337 0.51461452 1.8281372
0.87668633 0.51182222 1.818296
0.88339555 0.51182222 1.818296
0.89010477 0.51182222 1.808454
0.89681393 0.51182222 1.808454
0.90352321 0.51182222 1.818296
0.91519827 0.51461452 1.8281372
0.92194408 0.51461452 1.818296
0.9286899 0.51461452 1.818296
0.93543571 0.51461452 1.818296
0.94218147 0.51461452 1.818296
0.94892734 0.51461452 1.818296
0.96604395 0.520199 1.818296
nan nan -inf
nan nan -inf
nan nan -inf
nan nan -inf
nan nan -inf
nan nan -inf
nan nan -inf
nan nan -inf
nan nan -inf
nan nan -inf
nan nan -inf
nan nan -inf
nan nan -inf
nan nan -inf
nan nan -inf
nan nan -inf
nan nan -inf
-0.67663723 0.3261427 1.1470977
-0.67241699 0.3261427 1.1470977
-0.66819674 0.3261427 1.1470977
-0.66397649 0.3261427 1.1470977
-0.65975624 0.3261427 1.1470977
-0.655536 0.3261427 1.1470977
-0.65357524 0.32727414 1.1510575
-0.64934033 0.32727414 1.1510575
-0.64510548 0.32727414 1.1510575
-0.64087057 0.32727414 1.1510575
-0.63663566 0.32727414 1.1510575
-0.63677347 0.32953706 1.1589766
-0.63685274 0.33179998 1.1589766
-0.63903046 0.33519435 1.1668952
-0.63683552 0.33632585 1.1748133
nan nan -inf
-0.62813145 0.33632585 1.1827308
nan nan -inf
nan nan -inf
-0.60059088 0.32840562 1.1352177
-0.59634137 0.32840562 1.1352177
-0.59413171 0.32953706 1.1550171
-0.58986753 0.32953706 1.1550171
-0.58359277 0.32840562 1.1550171
-0.57734716 0.32727414 1.1470977
-0.57311231 0.32727414 1.1391778
-0.56887734 0.32727414 1.1352177
-0.40652308 0.2356261 0.82987338
-0.40347412 0.2356261 0.82987338
-0.40042514 0.2356261 0.82987338
-0.39737615 0.2356261 0.82987338
-0.39432716 0.2356261 0.82987338
-0.39127821 0.2356261 0.82987338
-0.39009348 0.23675755 0.82987338
-0.38795465 0.23732328 0.83384413
-0.3848837 0.23732328 0.83384413
-0.38181278 0.23732328 0.83384413
-0.37874183 0.23732328 0.83582938
-0.37567088 0.23732328 0.83582938
-0.37259996 0.23732328 0.83582938
-0.37040991 0.23788902 0.83781469
-0.36995232 0.2395862 0.84178513
-0.36858457 0.24071765 0.84377027
-0.36675808 0.24156624 0.85071802
-0.36448383 0.24213198 0.85071802
-0.37232628 0.24948648 0.85071802
-0.36909798 0.24948648 0.87652051
-0.36794373 0.25090078 0.87850511
-0.3675752 0.25288084 0.89041173
-0.38223284 0.26532689 0.89239609
-0.37879956 0.26532689 0.89239609
-0.38697141 0.27352992 0.92116499
-0.39017275 0.27833861 0.92116499
-0.39207107 0.28229874 0.98462951
-0.39425609 0.2865417 1.0084198
-0.39286152 0.28823888 1.0113932
-0.39142293 0.28993607 1.0113932
-0.39107519 0.29248187 1.0262591
nan nan -inf
nan nan -inf
nan nan -inf
nan nan -inf
nan nan -inf
nan nan -inf
-0.50103629 0.40195039 1.4012353
-0.4958351 0.40195039 1.4012353
-0.49063393 0.40195039 1.4061741
-0.48543271 0.40195039 1.4121003
-0.48023149 0.40195039 1.4121003
-0.47503033 0.40195039 1.4121003
-0.61266249 0.52414787 1.8379774
-0.60261035 0.52131921 1.8281372
-0.59586453 0.52131921 1.8281372
-0.58592218 0.51849055 1.818296
-0.5792129 0.51849055 1.5976315
-0.57250375 0.51849055 1.5976315
-0.51332039 0.47040355 1.6508666
-0.50723344 0.47040355 1.6508666
-0.49873564 0.46814066 1.6429815
-0.48791495 0.46361485 1.6272098
-0.4819158 0.46361485 1.6272098
-0.47591668 0.46361485 1.6203088
-0.46791056 0.46163478 1.6203088
-0.45967263 0.45937186 1.6124215
-0.45372841 0.45937186 1.6124215
-0.44778422 0.45937186 1.6124215
-0.44183999 0.45937186 1.6124215
-0.43804303 0.46163478 1.5976315
-0.43206951 0.46163478 1.5976315
nan nan 1.0787702
-0.27905196 0.30662507 1.074808
-0.27508426 0.30662507 1.074808
-0.27011615 0.30549362 1.074808
-0.26542374 0.30464503 1.0718361
-0.25978217 0.302665 1.0649017
-0.25586572 0.302665 1.0649017
-0.25194928 0.302665 1.0619297
-0.24803282 0.302665 1.0619297
-0.24411637 0.302665 1.0649017
-0.24019992 0.302665 1.0649017
-0.23628347 0.302665 1.0649017
-0.23301847 0.30351356 1.0678736
-0.22909105 0.30351356 1.0678736
-0.22516361 0.30351356 1.0678736
-0.22206093 0.30464503 1.0678736
-0.21811886 0.30464503 1.0678736
-0.21417677 0.30464503 1.0718361
-0.21082032 0.30549362 1.0718361
-0.20686726 0.30549362 1.074808
-0.2042294 0.30747369 1.0817418
-0.20025072 0.30747369 1.0817418
-0.19681372 0.30832228 1.0847133
-0.19282407 0.30832228 1.0847133
-0.18952738 0.30945373 1.0886753
-0.18603183 0.31030232 1.0886753
-0.18201655 0.31030232 1.0916466
-0.1786503 0.31143376 1.0916466
-0.17525481 0.31256524 1.0956082
-0.17121023 0.31256524 1.0995698
-0.16761953 0.31341386 1.102541
-0.16415447 0.31454527 1.102541
-0.16008428 0.31454527 1.102541
-0.15601408 0.31454527 1.1065022
-0.15235384 0.31539389 1.1094731
-0.14827266 0.31539389 1.1094731
-0.14470878 0.31652534 1.1134341
-0.14111562 0.31765679 1.1134341
-0.13737117 0.31850538 1.1173952
-0.1337231 0.31963682 1.1203657
-0.12958704 0.31963682 1.1243263
-0.12545097 0.31963682 1.1243263
-0.12174433 0.32076827 1.128287
-0.11800842 0.32189974 1.1322474
-0.11414318 0.32274833 1.1322474
-0.10996686 0.32274833 1.1352177
-0.10616139 0.32387978 1.1352177
-0.10197042 0.32387978 1.1391778
-0.09812104 0.32501125 1.1391778
-0.093915425 0.32501125 1.1431379
-0.090334423 0.32727414 1.1470977
-0.086099528 0.32727414 1.1470977
-0.081864633 0.32727414 1.1510575
-0.07789813 0.32840562 1.1550171
-0.073902331 0.32953706 1.1550171
-0.069638155 0.32953706 1.1550171
-0.06537398 0.32953706 1.1589766
-0.061109804 0.32953706 1.1589766
-0.056845628 0.32953706 1.1589766
-0.052761994 0.33066854 1.162936
-0.048483178 0.33066854 1.162936
-0.044355616 0.33179998 1.1668952
-0.040062156 0.33179998 1.1668952
-0.035890676 0.33293149 1.1708543
-0.031689908 0.3340629 1.1708543
-0.027367169 0.3340629 1.1748133
-0.02312248 0.33519435 1.178772
-0.0187851 0.33519435 1.178772
-0.014447719 0.33519435 1.178772
-0.010110339 0.33519435 1.178772
-0.0057924464 0.33632585 1.178772
-0.0014404251 0.33632585 1.1827308
0.002921391 0.33745727 1.1827308
0.0072880532 0.33745727 1.1866893
0.011693793 0.33858877 1.1906477
0.016075097 0.33858877 1.1906477
0.0204564 0.33858877 1.1866893
0.024837703 0.33858877 1.1866893
0.029219005 0.33858877 1.1866893
0.033600308 0.33858877 1.1866893
0.037981611 0.33858877 1.1906477
0.042362913 0.33858877 1.1906477
0.046744216 0.33858877 1.1906477
0.051125523 0.33858877 1.1906477
0.055738684 0.34000307 1.1955955
0.091708377 0.51849055 1.1955955
0.098417595 0.51849055 1.1995536
0.10570034 0.52131921 1.1995536
0.11305628 0.52414787 1.818296
0.11983869 0.52414787 1.8379774
0.12662111 0.52414787 1.8379774
0.13340352 0.52414787 1.8379774
0.14018595 0.52414787 1.8379774
0.14696836 0.52414787 1.8379774
0.15375079 0.52414787 1.8379774
0.16139954 0.52697653 1.8379774
0.16912152 0.52980518 1.8478168
nan nan -inf
nan nan -inf
nan nan -inf
nan nan -inf
nan nan -inf
nan nan -inf
nan nan -inf
nan nan -inf
nan nan -inf
nan nan 1.808454
0.24192221 0.52414787 1.808454
0.24870466 0.52414787 1.818296
0.25548705 0.52414787 1.8281372
0.2622695 0.52414787 1.8281372
0.26905191 0.52414787 1.8281372
0.27285716 0.51849055 1.818296
0.27956635 0.51849055 1.818296
0.28627557 0.51849055 1.818296
0.29618159 0.52414787 1.8281372
0.302964 0.52414787 1.8379774
0.30974641 0.52414787 1.8379774
0.31482065 0.52131921 1.8281372
0.31982163 0.51849055 1.818296
0.32653084 0.51849055 1.818296
0.33142206 0.5156619 1.808454
0.33809465 0.5156619 1.808454
0.3447673 0.5156619 1.808454
0.35143989 0.5156619 1.808454
0.34161144 0.49190128 1.7090025
0.34637576 0.48963839 1.7090025
0.35271165 0.48963839 1.7090025
0.36070687 0.49190128 1.717868
0.36538339 0.48963839 1.717868
0.37171924 0.48963839 1.717868
0.37980235 0.49190128 1.7257479
0.4070414 0.51849055 1.818296
0.41375062 0.51849055 1.818296
0.42275369 0.52131921 1.818296
0.42949951 0.52131921 1.8281372
0.43624532 0.52131921 1.8281372
0.44299114 0.52131921 1.8281372
0.44729668 0.51849055 1.818296
0.4540059 0.51849055 1.818296
0.46322858 0.52131921 1.8281372
0.4699744 0.52131921 1.818296
0.47672021 0.52131921 1.818296
0.48346606 0.52131921 1.818296
0.49021187 0.52131921 1.818296
0.49426118 0.51849055 1.818296
0.50097042 0.51849055 1.808454
0.50767958 0.51849055 1.808454
0.51158255 0.5156619 1.808454
0.51825517 0.5156619 1.7986112
0.52492774 0.5156619 1.7986112
0.53160036 0.5156619 1.7986112
0.53827298 0.5156619 1.7986112
0.54793489 0.51849055 1.808454
0.55767 0.52131921 1.818296
0.56441581 0.52131921 1.8281372
0.57116163 0.52131921 1.8281372
0.5779075 0.52131921 1.8281372
0.58465332 0.52131921 1.8281372
0.59139907 0.52131921 1.8281372
0.59814489 0.52131921 1.818296
0.60160857 0.51849055 1.818296
0.60499913 0.5156619 1.808454
0.61167175 0.5156619 1.808454
0.61834431 0.5156619 1.7986112
0.62501693 0.5156619 1.7986112
0.6351546 0.51849055 1.7986112
0.64186388 0.51849055 1.7986112
0.64857304 0.51849055 1.7986112
0.65170741 0.5156619 1.7986112
0.65838003 0.5156619 1.808454
0.66505259 0.5156619 1.808454
0.67540991 0.51849055 1.808454
0.67839783 0.5156619 1.808454
0.68507046 0.5156619 1.808454
0.69553757 0.51849055 1.818296
0.70607799 0.52131921 1.818296
0.708956 0.51849055 1.818296
0.71176088 0.5156619 1.808454
0.7184335 0.5156619 1.808454
0.72908366 0.51849055 1.808454
0.73579288 0.51849055 1.808454
0.74250203 0.51849055 1.808454
0.74921131 0.51849055 1.808454
0.75592047 0.51849055 1.808454
0.76262975 0.51849055 1.808454
0.76514179 0.5156619 1.808454
0.77181441 0.5156619 1.808454
0.77848697 0.5156619 1.808454
0.78946656 0.51849055 1.808454
0.79617578 0.51849055 1.818296
0.802885 0.51849055 1.818296
0.80959421 0.51849055 1.808454
0.81185007 0.5156619 1.808454
0.81852269 0.5156619 1.808454
0.82519525 0.5156619 1.808454
0.8409943 0.52131921 1.808454
0.84774011 0.52131921 1.808454
0.85448593 0.52131921 1.808454
0.86123168 0.52131921 1.818296
0.86797756 0.52131921 1.818296
0.87472337 0.52131921 1.818296
0.87668633 0.51849055 1.818296
0.88339555 0.51849055 1.818296
0.89010477 0.51849055 1.808454
0.89681393 0.51849055 1.808454
0.90352321 0.51849055 1.808454
0.91023237 0.51849055 1.818296
0.91694164 0.51849055 1.818296
0.9236508 0.51849055 1.818296
0.93036008 0.51849055 1.818296
0.93195707 0.5156619 1.808454
0.93862963 0.5156619 1.808454
0.96085852 0.52414787 1.818296
nan nan -inf
nan nan -inf
nan nan -inf
nan nan -inf
nan nan -inf
nan nan -inf
nan nan -inf
nan nan -inf
nan nan -inf
nan nan -inf
nan nan -inf
nan nan -inf
nan nan -inf
nan nan -inf
nan nan -inf
nan nan -inf
nan nan -inf
-0.67428988 0.32919127 1.1431379
-0.66775143 0.32804525 1.1391778
-0.66356051 0.32804525 1.1391778
-0.66167301 0.32919127 1.1391778
-0.65517855 0.32804525 1.1391778
-0.65098763 0.32804525 1.1391778
-0.64905626 0.32919127 1.1391778
-0.64485061 0.32919127 1.1431379
-0.64064497 0.32919127 1.1431379
-0.63865495 0.33033726 1.1470977
-0.6344347 0.33033726 1.1470977
-0.63240081 0.33148327 1.1510575
-0.64119613 0.33835933 1.1550171
-0.63903046 0.33950534 1.162936
nan nan 1.1827308
nan nan -inf
nan nan -inf
nan nan -inf
nan nan -inf
-0.60059088 0.33262929 1.1352177
-0.59634137 0.33262929 1.1352177
-0.59209186 0.33262929 1.1550171
-0.58784229 0.33262929 1.1550171
-0.58158207 0.33148327 1.1510575
-0.57734716 0.33148327 1.1391778
-0.57311231 0.33148327 1.1391778
-0.56887734 0.33148327 0.82788795
-0.40554702 0.23808348 0.82788795
-0.40250537 0.23808348 0.82788795
-0.39946371 0.23808348 0.82788795
-0.39642206 0.23808348 0.82788795
-0.3933804 0.23808348 0.82788795
-0.39127821 0.23865652 0.82788795
-0.38822922 0.23865652 0.82788795
-0.38610506 0.2392295 0.82788795
-0.38304874 0.2392295 0.82987338
-0.37999246 0.2392295 0.82987338
-0.377839 0.23980251 0.83384413
-0.37477538 0.23980251 0.83384413
-0.37259996 0.24037552 0.83384413
-0.37040991 0.24094851 0.83781469
-0.36907876 0.24209453 0.84178513
-0.36988392 0.24467303 0.84377027
-0.36675808 0.24467303 0.85071802
-0.36618704 0.24639206 0.85468799
-0.38752326 0.26300919 0.85468799
-0.38416317 0.26300919 0.91124547
-0.37955862 0.26214969 0.90926147
-0.37620953 0.26214969 0.90926147
-0.37612039 0.2644417 0.90926147
-0.38929933 0.27618831 0.92116499
-0.38697141 0.27704784 0.92116499
-0.39017275 0.28191838 0.92116499
-0.39442819 0.28764838 0.99355143
-0.39659128 0.29194596 1.0084198
-0.39517468 0.29366496 1.0113932
-0.39256856 0.29452446 1.0113932
nan nan -inf
nan nan -inf
nan nan -inf
nan nan -inf
nan nan -inf
nan nan -inf
nan nan -inf
-0.50315189 0.40883896 1.4012353
-0.4958351 0.40711993 1.4012353
-0.49063393 0.40711993 1.4061741
-0.4874824 0.40883896 1.4121003
-0.48225927 0.40883896 1.4121003
-0.47703612 0.40883896 1.4121003
-0.61266249 0.53088897 1.4239517
-0.60261035 0.52802396 1.818296
-0.59263134 0.52515888 1.818296
-0.58592218 0.52515888 1.808454
-0.57605302 0.52229387 1.7986112
-0.5693804 0.52229387 1.7986112
-0.51332039 0.47645351 1.6429815
-0.50479335 0.47416148 1.6272098
-0.49632484 0.47186944 1.6272098
-0.48791495 0.46957746 1.6272098
-0.4819158 0.46957746 1.6272098
-0.47388408 0.46757191 1.6203088
-0.46791056 0.46757191 1.6203088
-0.45967263 0.46527988 1.6124215
-0.45372841 0.46527988 1.6124215
-0.44778422 0.46527988 1.6124215
-0.44183999 0.46527988 1.6045339
-0.43589577 0.46527988 1.5976315
-0.42995155 0.46527988 1.5976315
-0.42191863 0.4629879 1.5976315
-0.27905196 0.3105686 1.074808
-0.27508426 0.3105686 1.074808
-0.27011615 0.30942261 1.074808
-0.26616311 0.30942261 1.0718361
-0.2605105 0.30741706 1.0678736
-0.25586572 0.3065576 1.0649017
-0.25194928 0.3065576 1.0649017
-0.24803282 0.3065576 1.0649017
-0.24411637 0.3065576 1.0649017
-0.24087334 0.30741706 1.0649017
-0.23694591 0.30741706 1.0678736
-0.23301847 0.30741706 1.0678736
-0.22994508 0.30856311 1.0718361
-0.22600301 0.30856311 1.0718361
-0.2226795 0.30942261 1.0718361
-0.21872643 0.30942261 1.0718361
-0.21477337 0.30942261 1.0718361
-0.21082032 0.30942261 1.074808
-0.20763344 0.3105686 1.074808
-0.2042294 0.31142813 1.0817418
-0.20080338 0.31228763 1.0817418
-0.19681372 0.31228763 1.0847133
-0.19353166 0.31343365 1.0847133
-0.19004712 0.31429315 1.0916466
-0.18671015 0.31543913 1.0916466
-0.18268022 0.31543913 1.0956082
-0.1786503 0.31543913 1.0956082
-0.17525481 0.31658515 1.0995698
-0.17167507 0.31744465 1.0995698
-0.16822465 0.31859064 1.102541
-0.16415447 0.31859064 1.1065022
-0.16008428 0.31859064 1.1065022
-0.156435 0.31945017 1.1094731
-0.1529004 0.32059616 1.1094731
-0.14933652 0.32174221 1.1134341
-0.14522606 0.32174221 1.1173952
-0.14149261 0.32260171 1.1173952
-0.13785917 0.32374769 1.1203657
-0.1337231 0.32374769 1.1243263
-0.13004574 0.32489371 1.128287
-0.12633912 0.32603973 1.1322474
-0.12217377 0.32603973 1.1322474
-0.1183195 0.32689926 1.1352177
-0.11414318 0.32689926 1.1352177
-0.11035236 0.32804525 1.1352177
-0.10616139 0.32804525 1.1391778
-0.10197042 0.32804525 1.1391778
-0.09812104 0.32919127 1.1431379
-0.093915425 0.32919127 1.1431379
-0.090334423 0.33148327 1.1470977
-0.086099528 0.33148327 1.1470977
-0.081864633 0.33148327 1.1510575
-0.07789813 0.33262929 1.1550171
-0.073902331 0.33377528 1.1589766
-0.069638155 0.33377528 1.1589766
-0.06537398 0.33377528 1.1589766
-0.061109804 0.33377528 1.1589766
-0.057040811 0.33492133 1.162936
-0.052761994 0.33492133 1.162936
-0.048483178 0.33492133 1.162936
-0.044506874 0.33721334 1.1708543
-0.040198773 0.33721334 1.1708543
-0.035890676 0.33721334 1.1708543
-0.031797241 0.33950534 1.1748133
-0.02745986 0.33950534 1.178772
-0.02312248 0.33950534 1.178772
-0.01884851 0.34065136 1.1827308
-0.014496488 0.34065136 1.1827308
-0.010144467 0.34065136 1.1827308
-0.0057924464 0.34065136 1.1827308
-0.0014452707 0.34179735 1.1827308
0.002921391 0.34179735 1.1866893
0.0073124897 0.3429434 1.1906477
0.011693793 0.3429434 1.1906477
0.016075097 0.3429434 1.1906477
0.0204564 0.3429434 1.1906477
0.024837703 0.3429434 1.1906477
0.029341055 0.34437591 1.1906477
0.033740662 0.34437591 1.1906477
0.038140263 0.34437591 1.1906477
0.042539869 0.34437591 1.1906477
0.046744216 0.3429434 1.1906477
0.051125523 0.3429434 1.1906477
0.083654396 0.51685035 1.789752
0.090257458 0.51685035 1.789752
0.097880669 0.52229387 1.7986112
0.10512681 0.52515888 1.818296
0.11305628 0.53088897 1.818296
0.11983869 0.53088897 1.8379774
0.12662111 0.53088897 1.8379774
0.13412346 0.53375393 1.8379774
0.1409425 0.53375393 1.8379774
0.14696836 0.53088897 1.8379774
0.15375079 0.53088897 1.8379774
0.16139954 0.53375393 1.8379774
0.16821857 0.53375393 1.8379774
0.17503759 0.53375393 1.8379774
nan nan -inf
nan nan -inf
nan nan -inf
nan nan -inf
nan nan -inf
nan nan -inf
nan nan -inf
nan nan -inf
nan nan 1.7986112
0.24061665 0.52802396 1.7986112
0.24736248 0.52802396 1.808454
0.25410831 0.52802396 1.818296
0.2608541 0.52802396 1.818296
0.26759991 0.52802396 1.818296
0.27285716 0.52515888 1.818296
0.27956635 0.52515888 1.818296
0.28627557 0.52515888 1.818296
0.2945832 0.52802396 1.8281372
0.30132902 0.52802396 1.8281372
0.3080748 0.52802396 1.8281372
0.31311241 0.52515888 1.818296
0.31982163 0.52515888 1.818296
0.32653084 0.52515888 1.808454
0.33142206 0.52229387 1.808454
0.33809465 0.52229387 1.808454
0.3447673 0.52229387 1.808454
0.35143989 0.52229387 1.808454
0.35811248 0.52229387 1.7090025
0.34637576 0.49593562 1.7090025
0.35271165 0.49593562 1.7090025
0.3590475 0.49593562 1.717868
0.36538339 0.49593562 1.717868
0.37171924 0.49593562 1.717868
0.3780551 0.49593562 1.717868
0.38816607 0.50080615 1.7346122
0.41600788 0.52802396 1.7799076
0.42275369 0.52802396 1.808454
0.42716905 0.52515888 1.818296
0.43387827 0.52515888 1.818296
0.44058749 0.52515888 1.808454
0.44485644 0.52229387 1.808454
0.45152906 0.52229387 1.808454
0.46071512 0.52515888 1.818296
0.46742433 0.52515888 1.818296
0.47413355 0.52515888 1.818296
0.48084274 0.52515888 1.818296
0.48755199 0.52515888 1.818296
0.49426118 0.52515888 1.818296
0.50097042 0.52515888 1.808454
0.50767958 0.52515888 1.808454
0.51158255 0.52229387 1.808454
0.51541227 0.51942885 1.789752
0.52204829 0.51942885 1.789752
0.52868426 0.51942885 1.789752
0.53532028 0.51942885 1.789752
0.54195631 0.51942885 1.7986112
0.55464411 0.52515888 1.808454
0.56135333 0.52515888 1.818296
0.56806254 0.52515888 1.808454
0.57163602 0.52229387 1.808454
0.57513636 0.51942885 1.7986112
0.58177239 0.51942885 1.7986112
0.58840835 0.51942885 1.7986112
0.59504437 0.51942885 1.7986112
0.6016804 0.51942885 1.7986112
0.60831642 0.51942885 1.7986112
0.61495239 0.51942885 1.7986112
0.62158841 0.51942885 1.7986112
0.63168955 0.52229387 1.7986112
0.63836217 0.52229387 1.7986112
0.64149642 0.51942885 1.7986112
0.64813244 0.51942885 1.7986112
0.65476847 0.51942885 1.7986112
0.66140449 0.51942885 1.7986112
0.66804051 0.51942885 1.7986112
0.67467648 0.51942885 1.7986112
0.6813125 0.51942885 1.7986112
0.69174302 0.52229387 1.7986112
0.69841564 0.52229387 1.7986112
0.70508832 0.52229387 1.808454
0.71176088 0.52229387 1.808454
0.7184335 0.52229387 1.7986112
0.72510612 0.52229387 1.7986112
0.73177868 0.52229387 1.808454
0.7384513 0.52229387 1.808454
0.74512392 0.52229387 1.808454
0.75179654 0.52229387 1.808454
0.75846916 0.52229387 1.808454
0.76514179 0.52229387 1.808454
0.77181441 0.52229387 1.808454
0.77848697 0.52229387 1.808454
0.78946656 0.52515888 1.808454
0.79617578 0.52515888 1.818296
0.802885 0.52515888 1.808454
0.80517739 0.52229387 1.808454
0.81185007 0.52229387 1.7986112
0.81403267 0.51942885 1.7986112
0.8206687 0.51942885 1.7986112
0.82730472 0.51942885 1.7986112
0.83394074 0.51942885 1.7986112
0.84521312 0.52229387 1.808454
0.85655868 0.52515888 1.818296
0.8632679 0.52515888 1.818296
0.86997712 0.52515888 1.818296
0.87190354 0.52229387 1.808454
0.87857616 0.52229387 1.808454
0.88524878 0.52229387 1.808454
0.8919214 0.52229387 1.808454
0.89859396 0.52229387 1.808454
0.90526658 0.52229387 1.808454
0.9119392 0.52229387 1.808454
0.91861182 0.52229387 1.808454
0.92528445 0.52229387 1.808454
0.92684484 0.51942885 1.7986112
0.92884696 0.51685035 1.789752
0.93545002 0.51685035 1.789752
nan nan -inf
nan nan -inf
nan nan -inf
nan nan -inf
nan nan -inf
nan nan -inf
nan nan -inf
nan nan -inf
nan nan -inf
nan nan -inf
nan nan -inf
nan nan -inf
nan nan -inf
nan nan -inf
nan nan -inf
nan nan -inf
nan nan -inf
-0.67194241 0.33221069 1.1352177
-0.66775143 0.33221069 1.1352177
-0.66356051 0.33221069 1.1352177
-0.65936953 0.33221069 1.1391778
-0.65517855 0.33221069 1.1352177
-0.65098763 0.33221069 1.1352177
-0.64679664 0.33221069 1.1391778
-0.64485061 0.33337128 1.1391778
-0.64064497 0.33337128 1.1391778
-0.63643938 0.33337128 1.1391778
-0.63223374 0.33337128 1.1431379
-0.63240081 0.33569238 1.1470977
-0.64119613 0.34265575 1.1550171
-0.64334458 0.3461374 1.162936
nan nan -inf
nan nan -inf
nan nan -inf
nan nan -inf
nan nan -inf
-0.59645247 0.33453181 1.1470977
-0.59223217 0.33453181 1.1470977
-0.59005183 0.33569238 1.1510575
-0.58581698 0.33569238 1.1510575
-0.58158207 0.33569238 1.1470977
-0.57734716 0.33569238 1.1391778
-0.57311231 0.33569238 1.1391778
-0.40858868 0.24110661 0.82590252
-0.40554702 0.24110661 0.82590252
-0.40250537 0.24110661 0.82590252
-0.39946371 0.24110661 0.82590252
-0.395468 0.24052633 0.82590252
-0.39243364 0.24052633 0.82590252
-0.38939932 0.24052633 0.82391709
-0.38636497 0.24052633 0.82391709
-0.38425544 0.24110661 0.82590252
-0.38213128 0.24168693 0.82987338
-0.37908229 0.24168693 0.82987338
-0.37603331 0.24168693 0.82987338
-0.37387985 0.24226718 0.82987338
-0.37171176 0.24284749 0.83185875
-0.37040991 0.24400805 0.83781469
-0.36907876 0.24516861 0.84178513
-0.37161639 0.24894041 0.84178513
-0.36847591 0.24894041 0.84575534
-0.36789027 0.25068125 0.856673
-0.38625687 0.26547843 0.91124547
-0.38290775 0.26547843 0.91124547
-0.38080308 0.26634884 0.91124547
-0.37744299 0.26634884 0.91124547
-0.37612039 0.26779953 0.91124547
-0.38929933 0.2796953 0.9598428
-0.38697141 0.28056571 0.96281749
-0.39215532 0.28694883 0.98264676
-0.39678535 0.29304174 0.9994989
-0.39659128 0.29565302 1.0084198
-0.39517468 0.29739383 1.0143665
nan nan 1.0173397
nan nan -inf
nan nan -inf
nan nan -inf
nan nan -inf
nan nan -inf
nan nan -inf
nan nan -inf
nan nan 1.4121003
-0.49792871 0.41403031 1.4121003
-0.49270555 0.41403031 1.4180262
-0.48953205 0.41577113 1.4239517
-0.48428693 0.41577113 1.4180262
-0.47904181 0.41577113 1.4180262
-0.47379673 0.41577113 1.4239517
-0.59607089 0.52892584 1.7986112
-0.58939826 0.52892584 1.7986112
-0.57952911 0.52602446 1.7986112
-0.57289314 0.52602446 1.789752
-0.56625712 0.52602446 1.789752
-0.51332039 0.48250338 1.6429815
-0.50479335 0.48018226 1.6272098
-0.49632484 0.47786114 1.6272098
-0.48791495 0.47554001 1.6272098
-0.47985759 0.47350904 1.6203088
-0.47388408 0.47350904 1.6203088
-0.46791056 0.47350904 1.6203088
-0.46193704 0.47350904 1.6203088
-0.45596352 0.47350904 1.6124215
-0.44778422 0.47118792 1.6124215
-0.44183999 0.47118792 1.6045339
-0.43374851 0.4688668 1.5976315
-0.42783356 0.4688668 1.5976315
-0.42191863 0.4688668 1.5976315
-0.41600367 0.4688668 1.074808
-0.27508426 0.31451213 1.074808
-0.27111655 0.31451213 1.074808
-0.26616311 0.3133516 1.074808
-0.2605105 0.31132057 1.0678736
-0.25658306 0.31132057 1.0678736
-0.25265566 0.31132057 1.0649017
-0.24872822 0.31132057 1.0649017
-0.24480076 0.31132057 1.0649017
-0.24087334 0.31132057 1.0649017
-0.23694591 0.31132057 1.0678736
-0.23388715 0.31248116 1.0718361
-0.2305856 0.3133516 1.0718361
-0.22663254 0.3133516 1.074808
-0.2226795 0.3133516 1.074808
-0.21872643 0.3133516 1.074808
-0.21477337 0.3133516 1.074808
-0.21160112 0.31451213 1.074808
-0.20763344 0.31451213 1.0787702
-0.2042294 0.31538257 1.0817418
-0.20080338 0.31625298 1.0847133
-0.19753598 0.31741351 1.0847133
-0.19353166 0.31741351 1.0886753
-0.19074006 0.31944451 1.0916466
-0.18671015 0.31944451 1.0956082
-0.18334393 0.32060507 1.0956082
-0.17929937 0.32060507 1.0995698
-0.17573062 0.32147551 1.0995698
-0.17167507 0.32147551 1.102541
-0.16822465 0.32263607 1.1065022
-0.16415447 0.32263607 1.1065022
-0.16008428 0.32263607 1.1065022
-0.156435 0.32350647 1.1094731
-0.1529004 0.32466704 1.1134341
-0.14933652 0.32582763 1.1173952
-0.14561403 0.32669804 1.1203657
-0.14149261 0.32669804 1.1203657
-0.13785917 0.3278586 1.1243263
-0.13419645 0.32901913 1.128287
-0.13050447 0.33017972 1.1322474
-0.12633912 0.33017972 1.1322474
-0.12249584 0.33105016 1.1352177
-0.1183195 0.33105016 1.1352177
-0.11414318 0.33105016 1.1352177
-0.11035236 0.33221069 1.1391778
-0.10653226 0.33337128 1.1391778
-0.10232665 0.33337128 1.1431379
-0.09812104 0.33337128 1.1431379
-0.094242372 0.33453181 1.1470977
-0.090646729 0.33685297 1.1510575
-0.086397201 0.33685297 1.1510575
-0.082147658 0.33685297 1.1510575
-0.078166507 0.3380135 1.1550171
-0.074156076 0.33917409 1.1589766
-0.069877259 0.33917409 1.1589766
-0.065822907 0.34033462 1.1668952
-0.061739262 0.34149519 1.1668952
-0.057431169 0.34149519 1.1708543
-0.053303603 0.34265575 1.1708543
-0.048814971 0.34149519 1.1708543
-0.044506874 0.34149519 1.1708543
-0.040335387 0.34265575 1.1708543
-0.036012646 0.34265575 1.1748133
-0.031797241 0.34381628 1.1748133
-0.027552553 0.34497687 1.178772
-0.023200531 0.34497687 1.1827308
-0.018911919 0.3461374 1.1866893
-0.014545257 0.3461374 1.1866893
-0.010178595 0.3461374 1.1866893
-0.0058119325 0.3461374 1.1827308
-0.0014501166 0.347298 1.1827308
0.0029311865 0.347298 1.1866893
0.0073124897 0.347298 1.1906477
0.011742638 0.34874868 1.1906477
0.016142244 0.34874868 1.1955955
0.020541847 0.34874868 1.1955955
0.024941452 0.34874868 1.1906477
0.029341055 0.34874868 1.1906477
