# .PCD v0.7 - Point Cloud Data file format
VERSION 0.7
FIELDS x y z
SIZE 4 4 4
TYPE F F F
COUNT 1 1 1
WIDTH 1559
HEIGHT 1
VIEWPOINT 0 0 0 1 0 0 0
POINTS 1559
DATA ascii
0.66511774 0.4829776 2.69081
0.68610591 0.49078184 2.7337699
0.70188338 0.49468398 2.7337699
0.71220559 0.49468398 2.7337699
0.7225278 0.49468398 2.7337699
0.73285007 0.49468398 2.7337699
0.73731005 0.49078184 2.7337699
0.74755085 0.49078184 2.7113156
0.75149274 0.48670232 2.7113156
0.7558195 0.4829776 2.69081
0.76589751 0.4829776 2.69081
0.77597547 0.4829776 2.69081
0.78605348 0.4829776 2.69081
0.80899578 0.49078184 2.7113156
0.81923664 0.49078184 2.7113156
0.8225826 0.48670232 2.7113156
0.83273828 0.48670232 2.7113156
0.84289396 0.48670232 2.7113156
0.8530497 0.48670232 2.7113156
0.86320537 0.48670232 2.7113156
0.87336111 0.48670232 2.7113156
0.89800596 0.49468398 2.7113156
0.90832818 0.49468398 2.628293
0.86924285 0.46807852 2.6087494
0.87900996 0.46807852 2.6087494
0.89551276 0.47162592 2.628293
0.91965431 0.47907543 2.6488104
0.9296509 0.47907543 2.6488104
0.93964738 0.47907543 2.6488104
0.94964397 0.47907543 2.6488104
0.95964044 0.47907543 2.6488104
0.97753495 0.4829776 2.6693237
0.98761284 0.4829776 2.6693237
0.9976908 0.4829776 2.69081
1.0077689 0.4829776 2.69081
1.0256965 0.48670232 2.7113156
1.0528395 0.49468398 2.7113156
1.0631618 0.49468398 2.7113156
0.63084996 0.29070887 1.6203088
0.63419574 0.28946728 1.6203088
0.64023584 0.28946728 1.6203088
0.64627594 0.28946728 1.6203088
0.65231609 0.28946728 1.6124215
0.65512896 0.28804833 1.6124215
0.66113943 0.28804833 1.6124215
0.6638636 0.28662938 1.6045339
0.66984445 0.28662938 1.6045339
0.67582536 0.28662938 1.6045339
0.68180633 0.28662938 1.5976315
0.68140298 0.28396884 1.5828396
0.67788357 0.2800667 1.5680457
0.68069643 0.2788251 1.55325
0.67996377 0.27616456 1.5463446
0.68572634 0.27616456 1.5463446
0.69148886 0.27616456 1.5463446
0.69411665 0.27492297 1.5394387
0.69985324 0.27492297 1.5394387
0.70558989 0.27492297 1.5394387
0.71453905 0.27616456 1.5394387
0.72030157 0.27616456 1.5463446
0.73305893 0.2788251 1.5611413
0.738877 0.2788251 1.5611413
0.74469507 0.2788251 1.55325
0.74669373 0.27740616 1.55325
0.74911427 0.27616456 1.5463446
0.75148302 0.27492297 1.5325326
0.75379997 0.27368137 1.5325326
0.7595107 0.27368137 1.5325326
0.76174992 0.27243978 1.518719
0.76093954 0.27013397 1.5127983
0.76657623 0.27013397 1.435802
0.73266423 0.25629917 1.435802
0.73494786 0.25523493 1.4239517
0.73718703 0.25417072 1.4180262
0.74249065 0.25417072 1.4180262
0.74779427 0.25417072 1.4180262
nan nan -inf
nan nan -inf
nan nan -inf
nan nan -inf
nan nan -inf
nan nan -inf
nan nan -inf
nan nan -inf
nan nan -inf
nan nan -inf
nan nan -inf
nan nan -inf
nan nan -inf
nan nan -inf
nan nan -inf
nan nan -inf
nan nan -inf
nan nan -inf
nan nan -inf
-0.70440841 0.21668084 1.1906477
-0.69997823 0.21668084 1.1906477
-0.70310205 0.21903411 1.1995536
-0.70093328 0.21975817 1.2035116
-0.69644022 0.21975817 1.2035116
-0.6919471 0.21975817 1.2035116
-0.68518895 0.21903411 1.2035116
-0.68071067 0.21903411 1.2035116
-0.6762324 0.21903411 1.2035116
-0.67397475 0.21975817 1.2074693
-0.66948169 0.21975817 1.2074693
-0.66498864 0.21975817 1.2074693
-0.66049552 0.21975817 1.2074693
-0.65600246 0.21975817 1.2074693
-0.65419269 0.22066326 1.2074693
-0.65394485 0.22211143 1.2124164
-0.64940363 0.22211143 1.2124164
-0.64065796 0.22066326 1.2074693
-0.63614631 0.22066326 1.2074693
-0.63163477 0.22066326 1.2124164
-0.63123882 0.22211143 1.216374
-0.62669766 0.22211143 1.2203314
-0.62469172 0.22301653 1.2203314
-0.62013203 0.22301653 1.2252779
-0.61557233 0.22301653 1.2252779
-0.61101264 0.22301653 1.2203314
-0.60399169 0.22211143 1.216374
-0.59749627 0.22138736 1.2124164
-0.59103054 0.22066326 1.2124164
-0.58651888 0.22066326 1.2124164
-0.58200735 0.22066326 1.2124164
-0.57749575 0.22066326 1.2124164
-0.57298416 0.22066326 1.2124164
-0.56847256 0.22066326 1.2124164
-0.56396097 0.22066326 1.2124164
-0.55944937 0.22066326 1.2124164
-0.55675882 0.22138736 1.216374
-0.55223238 0.22138736 1.216374
-0.54770607 0.22138736 1.2124164
-0.541403 0.22066326 1.2124164
-0.53689146 0.22066326 1.2124164
-0.53237987 0.22066326 1.2124164
-0.52786827 0.22066326 1.2124164
-0.52121001 0.21975817 1.2074693
-0.51671696 0.21975817 1.2074693
-0.5122239 0.21975817 1.2074693
-0.50982195 0.22066326 1.2124164
-0.50531036 0.22066326 1.2124164
-0.50079876 0.22066326 1.2124164
-0.4962872 0.22066326 1.2124164
-0.49338931 0.22138736 1.2124164
-0.48886296 0.22138736 1.2124164
-0.48433656 0.22138736 1.2124164
-0.47824085 0.22066326 1.2124164
-0.47372925 0.22066326 1.2124164
-0.46921769 0.22066326 1.2074693
-0.46470609 0.22066326 1.2074693
-0.4601945 0.22066326 1.2124164
-0.4556829 0.22066326 1.2124164
-0.45117134 0.22066326 1.2124164
-0.44665974 0.22066326 1.2124164
-0.44359905 0.22138736 1.216374
-0.43907267 0.22138736 1.216374
-0.43454626 0.22138736 1.216374
-0.43318436 0.22301653 1.2252779
-0.6178875 0.32149136 1.2252779
-0.53352326 0.28058085 1.5394387
-0.52778661 0.28058085 1.5394387
-0.52204996 0.28058085 1.5394387
-0.52597344 0.28583044 1.5680457
-0.52243531 0.28709757 1.5749497
-0.51917106 0.28854573 1.5828396
-0.51810157 0.29126105 1.5976315
-0.51437467 0.29252818 1.6045339
-0.51091057 0.29397634 1.6124215
-0.51205075 0.29813981 1.6272098
-0.5133279 0.30248427 1.6508666
-0.51230282 0.3055616 1.6755041
-0.51115203 0.30863896 1.6922545
-0.5098753 0.31171629 1.7001363
-0.51373589 0.31805199 1.7346122
-0.51271832 0.32149136 1.7523386
-0.50871015 0.32312056 1.7710468
-0.50463539 0.32474974 1.7799076
-0.50882167 0.33180949 1.818296
-0.50477654 0.33361971 1.818296
-0.50606108 0.33905029 1.8478168
-0.50179392 0.34086049 1.8576553
-0.50612456 0.34864438 1.8989679
-0.49899635 0.34864438 1.9097853
-0.49442193 0.35045454 1.8989679
-0.49304539 0.35461801 1.8989679
-0.50290573 0.3671084 1.998253
-0.49540001 0.3671084 1.998253
-0.49078119 0.36928061 2.0218327
-0.49507496 0.3783316 2.0591571
-0.5059939 0.39281324 2.1357317
-0.49474993 0.39027891 2.1357317
-0.48677045 0.39027891 2.1357317
-0.47879094 0.39027891 2.1357317
-0.47081152 0.39027891 2.1357317
-0.51843196 0.43716308 2.309305
-0.50949395 0.43716308 2.309305
-0.50055587 0.43716308 2.3563297
-0.49161786 0.43716308 2.3729794
-0.48607752 0.44024041 2.3896267
-0.47707659 0.44024041 2.3896267
-0.52812475 0.49671865 2.69081
-0.51400506 0.49291721 2.69081
-0.50392705 0.49291721 2.69081
-0.49384913 0.49291721 2.69081
-0.48377112 0.49291721 2.69081
-0.4773463 0.49671865 2.69081
-0.46719062 0.49671865 2.69081
-0.45703495 0.49671865 2.6693237
-0.44687924 0.49671865 2.6693237
-0.43672353 0.49671865 2.6693237
-0.42656785 0.49671865 2.6693237
-0.40988675 0.48893479 2.6693237
-0.39989018 0.48893479 2.6693237
-0.38686225 0.48513335 2.6488104
-0.37694344 0.48513335 2.6488104
nan nan 2.6693237
nan nan 2.6488104
nan nan -inf
nan nan -inf
nan nan -inf
nan nan -inf
nan nan -inf
nan nan -inf
nan nan -inf
-0.19100849 0.33361971 1.818296
-0.18418746 0.33361971 1.818296
-0.17736641 0.33361971 1.818296
-0.17054537 0.33361971 1.818296
-0.16372433 0.33361971 1.818296
-0.23182182 0.49291721 1.818296
-0.22174385 0.49291721 2.69081
-0.21166588 0.49291721 2.69081
-0.20158792 0.49291721 2.69081
-0.19150993 0.49291721 2.69081
-0.18143195 0.49291721 2.69081
-0.17135398 0.49291721 2.69081
-0.16127601 0.49291721 2.6693237
-0.15236408 0.49671865 2.6693237
-0.14220838 0.49671865 2.69081
-0.13205269 0.49671865 2.69081
-0.121897 0.49671865 2.69081
-0.11088615 0.49291721 2.6693237
-0.10080818 0.49291721 2.69081
-0.090730205 0.49291721 2.5882249
-0.080652229 0.49291721 2.5882249
-0.070574261 0.49291721 2.6693237
-0.060496289 0.49291721 2.6693237
-0.050418314 0.49291721 2.6693237
-0.040340342 0.49291721 2.6693237
-0.03026237 0.49291721 2.6693237
-0.020184394 0.49291721 2.6693237
-0.010106421 0.49291721 2.6693237
-2.8908562e-05 0.50088209 2.6693237
0.010211911 0.50088209 2.69081
0.020452728 0.50088209 2.69081
0.030438414 0.49671865 2.7113156
0.040594112 0.49671865 2.7113156
0.050749805 0.49671865 2.7113156
0.060905498 0.49671865 2.7113156
0.071061194 0.49671865 2.7113156
0.081216887 0.49671865 2.7113156
0.091372579 0.49671865 2.69081
0.10152827 0.49671865 2.69081
0.11168397 0.49671865 2.7113156
0.12183966 0.49671865 2.69081
0.1309852 0.49291721 2.69081
0.14106317 0.49291721 2.69081
0.15114115 0.49291721 2.69081
0.16121912 0.49291721 2.69081
0.17129709 0.49291721 2.69081
0.18137506 0.49291721 2.69081
0.19145302 0.49291721 2.6693237
0.20153101 0.49291721 2.6693237
0.21160899 0.49291721 2.6693237
0.22168696 0.49291721 2.6693237
0.23355231 0.49671865 2.69081
0.2418429 0.49291721 2.69081
0.25192088 0.49291721 2.6693237
0.26199883 0.49291721 2.6693237
0.27207682 0.49291721 2.6693237
0.2821548 0.49291721 2.69081
0.29223275 0.49291721 2.69081
0.30464217 0.49671865 2.7113156
0.31743649 0.50088209 2.7113156
0.32767728 0.50088209 2.7337699
0.3379181 0.50088209 2.7113156
0.34815896 0.50088209 2.7113156
0.35542062 0.49671865 2.69081
0.36557633 0.49671865 2.69081
0.37573203 0.49671865 2.69081
0.38588771 0.49671865 2.7113156
0.39604342 0.49671865 2.69081
0.4061991 0.49671865 2.69081
0.41984466 0.50088209 2.69081
0.42651048 0.49671865 2.69081
0.43666619 0.49671865 2.7113156
0.44682187 0.49671865 2.7113156
0.45697758 0.49671865 2.7113156
0.46713328 0.49671865 2.6693237
0.48128957 0.50088209 2.6693237
0.49153039 0.50088209 2.6693237
0.50177121 0.50088209 2.6693237
0.51201206 0.50088209 2.6488104
0.51791173 0.49671865 2.6488104
0.52806747 0.49671865 2.6693237
0.53822315 0.49671865 2.6693237
0.54837888 0.49671865 2.69081
0.5585345 0.49671865 2.69081
0.56869024 0.49671865 2.69081
0.57884592 0.49671865 2.69081
0.58900166 0.49671865 2.69081
0.59915727 0.49671865 2.69081
0.60931301 0.49671865 2.69081
0.61472791 0.49291721 2.6693237
0.62480587 0.49291721 2.6693237
0.63488388 0.49291721 2.6693237
0.6397509 0.48893479 2.6693237
0.64974749 0.48893479 2.6693237
0.66511774 0.49291721 2.69081
0.68040287 0.49671865 2.7113156
0.69634682 0.50088209 2.69081
0.70658761 0.50088209 2.69081
0.71682841 0.50088209 2.7113156
0.72706926 0.50088209 2.69081
0.73118138 0.49671865 2.69081
0.73566359 0.49291721 2.6693237
0.74574155 0.49291721 2.6693237
0.7558195 0.49291721 2.6693237
0.76589751 0.49291721 2.69081
0.77597547 0.49291721 2.69081
0.78605348 0.49291721 2.69081
0.80899578 0.50088209 2.7113156
0.81242692 0.49671865 2.69081
0.81628734 0.49291721 2.69081
0.82636535 0.49291721 2.69081
0.83644331 0.49291721 2.6693237
0.84652126 0.49291721 2.6693237
0.85659921 0.49291721 2.69081
0.85967499 0.48893479 2.6693237
0.86967158 0.48893479 2.6693237
0.87966812 0.48893479 2.6087494
0.86924285 0.47771153 2.6087494
0.87900996 0.47771153 2.6087494
0.89551276 0.48133194 2.6087494
0.91965431 0.48893479 2.6488104
0.92242295 0.48513335 2.6488104
0.93234181 0.48513335 2.6488104
0.94226062 0.48513335 2.6488104
0.95217943 0.48513335 2.6488104
0.9620983 0.48513335 2.6488104
0.97963363 0.48893479 2.6488104
0.98963022 0.48893479 2.6488104
0.99962676 0.48893479 2.6488104
1.0178468 0.49291721 2.6693237
1.0279248 0.49291721 1.6045339
0.62211543 0.29542449 1.6045339
0.62815559 0.29542449 1.6124215
0.63419574 0.29542449 1.6203088
0.64023584 0.29542449 1.6203088
0.64310795 0.29397634 1.6124215
0.64911842 0.29397634 1.6124215
0.65512896 0.29397634 1.6124215
0.66113943 0.29397634 1.6124215
0.6638636 0.29252818 1.6045339
0.66984445 0.29252818 1.6045339
0.67582536 0.29252818 1.6045339
0.67885286 0.29126105 1.5897427
0.6784237 0.28854573 1.5749497
0.67487836 0.28456333 1.5611413
0.68069643 0.28456333 1.55325
0.67996377 0.28184801 1.5463446
0.68572634 0.28184801 1.5463446
0.69148886 0.28184801 1.5463446
0.69411665 0.28058085 1.5394387
0.69985324 0.28058085 1.5394387
0.70877647 0.28184801 1.5394387
0.71453905 0.28184801 1.5463446
0.72353995 0.28311515 1.5463446
0.73305893 0.28456333 1.5611413
0.738877 0.28456333 1.5611413
0.74801111 0.28583044 1.5611413
0.75051314 0.28456333 1.55325
0.74911427 0.28184801 1.5463446
0.75148302 0.28058085 1.5394387
0.75379997 0.27931374 1.5325326
0.7595107 0.27931374 1.5256261
0.76174992 0.27804661 1.518719
0.76093954 0.27569333 1.5127983
0.76657623 0.27569333 1.435802
0.73266423 0.26157379 1.429877
0.73494786 0.26048768 1.4239517
0.73718703 0.25940153 1.4180262
0.74249065 0.25940153 1.4180262
0.74779427 0.25940153 1.4180262
nan nan -inf
nan nan -inf
nan nan -inf
nan nan -inf
nan nan -inf
nan nan -inf
nan nan -inf
nan nan -inf
nan nan -inf
nan nan -inf
nan nan -inf
nan nan -inf
nan nan -inf
nan nan -inf
nan nan -inf
nan nan -inf
nan nan -inf
nan nan -inf
nan nan -inf
-0.70735079 0.22197355 1.1906477
-0.70290214 0.22197355 1.1906477
-0.70310205 0.22345091 1.1995536
-0.70093328 0.22418958 1.2035116
-0.69644022 0.22418958 1.2035116
-0.68966722 0.22345091 1.2035116
-0.68292379 0.22271222 1.1995536
-0.67846036 0.22271222 1.1995536
-0.6762324 0.22345091 1.2035116
-0.67397475 0.22418958 1.2074693
-0.66948169 0.22418958 1.2074693
-0.66498864 0.22418958 1.2074693
-0.66049552 0.22418958 1.2074693
-0.65600246 0.22418958 1.2074693
-0.65419269 0.22511294 1.2074693
-0.65394485 0.22659031 1.2124164
-0.64940363 0.22659031 1.2124164
-0.64065796 0.22511294 1.2074693
-0.63614631 0.22511294 1.2074693
-0.63163477 0.22511294 1.2124164
-0.63123882 0.22659031 1.216374
-0.62669766 0.22659031 1.216374
-0.62215644 0.22659031 1.216374
-0.61761522 0.22659031 1.2203314
-0.61307406 0.22659031 1.2203314
-0.60853285 0.22659031 1.2203314
-0.60399169 0.22659031 1.216374
-0.59749627 0.22585163 1.2124164
-0.59103054 0.22511294 1.2124164
-0.58651888 0.22511294 1.2124164
-0.58200735 0.22511294 1.2124164
-0.57749575 0.22511294 1.2124164
-0.57298416 0.22511294 1.2124164
-0.56847256 0.22511294 1.2124164
-0.56396097 0.22511294 1.2124164
-0.55944937 0.22511294 1.2124164
-0.55493784 0.22511294 1.2124164
-0.55042619 0.22511294 1.2124164
-0.54591465 0.22511294 1.2074693
-0.53918236 0.22418958 1.2074693
-0.53468925 0.22418958 1.2074693
-0.53019625 0.22418958 1.2074693
-0.52570313 0.22418958 1.2074693
-0.52121001 0.22418958 1.2074693
-0.51671696 0.22418958 1.2074693
-0.5122239 0.22418958 1.2074693
-0.50982195 0.22511294 1.2124164
-0.50531036 0.22511294 1.2035116
-0.50079876 0.22511294 1.2035116
-0.4962872 0.22511294 1.2074693
-0.4917756 0.22511294 1.2124164
-0.48726404 0.22511294 1.2074693
-0.48275241 0.22511294 1.2074693
-0.47824085 0.22511294 1.2124164
-0.47372925 0.22511294 1.2124164
-0.46921769 0.22511294 1.2074693
-0.46470609 0.22511294 1.2074693
-0.4601945 0.22511294 1.2124164
-0.4556829 0.22511294 1.2124164
-0.45117134 0.22511294 1.2124164
-0.44665974 0.22511294 1.2124164
-0.44359905 0.22585163 1.216374
-0.43907267 0.22585163 1.216374
-0.43454626 0.22585163 1.216374
-0.43142629 0.22659031 1.2203314
-0.4268851 0.22659031 1.2203314
-0.53352326 0.28623876 1.2252779
-0.52778661 0.28623876 1.5394387
-0.52676529 0.28882414 1.5463446
-0.52364165 0.29030153 1.5611413
-0.52012944 0.29159421 1.5680457
-0.51656544 0.29288688 1.5749497
-0.51552558 0.29565692 1.5897427
-0.51437467 0.29842702 1.6045339
-0.51091057 0.29990435 1.6124215
-0.50956357 0.30267441 1.6272098
-0.50841272 0.30562913 1.6429815
-0.51230282 0.31172326 1.6755041
-0.5135504 0.31634 1.6922545
-0.51254016 0.31966403 1.7090025
-0.51110435 0.32280347 1.7346122
-0.50983137 0.32612753 1.7434757
-0.51127505 0.33129829 1.7710468
-0.50744832 0.33314499 1.789752
-0.50882167 0.33850041 1.818296
-0.50477654 0.34034714 1.818296
-0.50606108 0.34588724 1.8478168
-0.50472528 0.34976533 1.8478168
-0.50875247 0.35752144 1.9196185
-0.50158721 0.35752144 1.9196185
-0.49723116 0.35955283 1.930434
-0.49304539 0.36176884 1.9422315
-0.49992999 0.37229505 1.987444
-0.49246863 0.37229505 1.998253
-0.48500735 0.37229505 1.998253
-0.47754598 0.37229505 1.998253
-0.5059939 0.40073428 2.1357317
-0.49796262 0.40073428 2.1357317
-0.48993132 0.40073428 2.1494706
-0.48190004 0.40073428 2.1494706
-0.48937321 0.41384584 2.1632075
-0.48107913 0.41384584 2.2044086
-0.51308042 0.44911784 2.2632411
-0.50407952 0.44911784 2.2632411
-0.4950785 0.44911784 2.4062715
-0.48607752 0.44911784 2.3896267
-0.54279232 0.51098233 2.3896267
-0.52408302 0.50285691 2.69081
-0.50985223 0.49879414 2.6693237
-0.49985567 0.49879414 2.6693237
-0.48985916 0.49879414 2.6693237
-0.4798626 0.49879414 2.6488104
-0.46986604 0.49879414 2.6488104
-0.46361518 0.50285691 2.6488104
-0.45353723 0.50285691 2.6693237
-0.44345924 0.50285691 2.6693237
-0.43338129 0.50285691 2.6693237
-0.42330331 0.50285691 2.6488104
-0.40669993 0.49491608 2.6488104
-0.39678109 0.49491608 2.6488104
-0.38686225 0.49491608 2.6488104
-0.37694344 0.49491608 2.6488104
nan nan 2.6488104
nan nan 2.6488104
nan nan 2.6087494
nan nan 2.6087494
nan nan 2.628293
nan nan -inf
nan nan -inf
nan nan -inf
nan nan -inf
-0.19100849 0.34034714 1.818296
-0.18418746 0.34034714 1.818296
-0.17736641 0.34034714 1.818296
-0.16961999 0.33850041 1.818296
-0.16283596 0.33850041 1.7986112
-0.15605192 0.33850041 1.7986112
-0.22174385 0.50285691 1.7986112
-0.21166588 0.50285691 2.6693237
-0.1999592 0.49879414 2.6693237
-0.18996267 0.49879414 2.6693237
-0.17996611 0.49879414 2.6693237
-0.16996956 0.49879414 2.6693237
-0.15997301 0.49879414 2.6693237
-0.15119804 0.50285691 2.6693237
-0.14112008 0.50285691 2.69081
-0.13104211 0.50285691 2.6693237
-0.121897 0.50673497 2.6693237
-0.11174131 0.50673497 2.6693237
-0.10080818 0.50285691 2.6087494
-0.090730205 0.50285691 2.5882249
-0.078164242 0.48734459 2.5882249
-0.068397157 0.48734459 2.6087494
-0.060007516 0.49879414 2.6488104
-0.050010968 0.49879414 2.6488104
-0.040014416 0.49879414 2.6693237
-0.03026237 0.50285691 2.6693237
-0.020184394 0.50285691 2.6693237
-0.010106421 0.50285691 2.6693237
-2.8448867e-05 0.50285691 2.6693237
0.010127027 0.50673497 2.6693237
0.020282721 0.50673497 2.69081
0.030438414 0.50673497 2.69081
0.040594112 0.50673497 2.7113156
0.050749805 0.50673497 2.69081
0.060439385 0.50285691 2.69081
0.070517361 0.50285691 2.69081
0.080595337 0.50285691 2.69081
0.090673305 0.50285691 2.69081
0.10152827 0.50673497 2.69081
0.11168397 0.50673497 2.7113156
0.12090722 0.50285691 2.69081
0.1309852 0.50285691 2.69081
0.14106317 0.50285691 2.6693237
0.15114115 0.50285691 2.6693237
0.16121912 0.50285691 2.6693237
0.16991311 0.49879414 2.6693237
0.17990966 0.49879414 2.6693237
0.18990622 0.49879414 2.6693237
0.19990277 0.49879414 2.6693237
0.20989932 0.49879414 2.6693237
0.21989587 0.49879414 2.6693237
0.23176493 0.50285691 2.6693237
0.2418429 0.50285691 2.6693237
0.25192088 0.50285691 2.6693237
0.26199883 0.50285691 2.6693237
0.27207682 0.50285691 2.6693237
0.27987516 0.49879414 2.6693237
0.28987169 0.49879414 2.6693237
0.30231073 0.50285691 2.6693237
0.31479785 0.50673497 2.69081
0.32767728 0.51098233 2.7113156
0.3379181 0.51098233 2.69081
0.34815896 0.51098233 2.6488104
0.35270062 0.50285691 2.6488104
0.36277857 0.50285691 2.6693237
0.37285656 0.50285691 2.6693237
0.38588771 0.50673497 2.6693237
0.39604342 0.50673497 2.6693237
0.4061991 0.50673497 2.6693237
0.41635481 0.50673497 2.69081
0.43008548 0.51098233 2.69081
0.4403263 0.51098233 2.7113156
0.43981993 0.49879414 2.6693237
0.45697758 0.50673497 2.6693237
0.46713328 0.50673497 2.6693237
0.47363627 0.50285691 2.6693237
0.48371425 0.50285691 2.6693237
0.49760038 0.50673497 2.6693237
0.50387019 0.50285691 2.6488104
0.51394814 0.50285691 2.6488104
0.52402616 0.50285691 2.6488104
0.53410411 0.50285691 2.6488104
0.54418206 0.50285691 2.6693237
0.5585345 0.50673497 2.6693237
0.56433803 0.50285691 2.6693237
0.57441604 0.50285691 2.6693237
0.58449399 0.50285691 2.69081
0.59457195 0.50285691 2.6693237
0.6046499 0.50285691 2.6693237
0.6097613 0.49879414 2.6488104
0.61975783 0.49879414 2.6488104
0.62975442 0.49879414 2.6693237
0.6397509 0.49879414 2.6693237
0.64974749 0.49879414 2.6693237
0.65974402 0.49879414 2.6693237
0.67519575 0.50285691 2.6693237
0.68527371 0.50285691 2.6693237
0.69535166 0.50285691 2.6693237
0.70542961 0.50285691 2.6693237
0.70972675 0.49879414 2.6488104
0.71972334 0.49879414 2.6488104
0.72971988 0.49879414 2.6488104
0.73971647 0.49879414 2.6693237
0.74971294 0.49879414 2.6693237
0.75970954 0.49879414 2.6693237
0.76970607 0.49879414 2.6693237
0.77970266 0.49879414 2.6693237
0.78969914 0.49879414 2.6693237
0.79969573 0.49879414 2.6693237
0.80969226 0.49879414 2.6693237
0.81968886 0.49879414 2.6693237
0.82968539 0.49879414 2.6693237
0.83968192 0.49879414 2.6693237
0.84967852 0.49879414 2.6693237
0.85299116 0.49491608 2.6488104
0.86290997 0.49491608 2.6488104
0.87282884 0.49491608 2.6087494
0.86924285 0.48734459 2.5882249
0.87900996 0.48734459 2.5882249
0.89551276 0.49103796 2.6087494
0.91250414 0.49491608 2.628293
0.92242295 0.49491608 2.6488104
0.93234181 0.49491608 2.6488104
0.94226062 0.49491608 2.6488104
0.95217943 0.49491608 2.628293
0.9620983 0.49491608 2.628293
0.97963363 0.49879414 2.6488104
0.98963022 0.49879414 2.628293
0.99962676 0.49879414 2.628293
1.0178468 0.50285691 2.6693237
0.6160754 0.30138171 1.6045339
0.62211543 0.30138171 1.6045339
0.62815559 0.30138171 1.6124215
0.63419574 0.30138171 1.6203088
0.64023584 0.30138171 1.6203088
0.64310795 0.29990435 1.6124215
0.64911842 0.29990435 1.6124215
0.65512896 0.29990435 1.6124215
0.66113943 0.29990435 1.6124215
0.66715002 0.29990435 1.6124215
0.67316049 0.29990435 1.6124215
0.67582536 0.29842702 1.6045339
0.67885286 0.29713431 1.5897427
0.67501879 0.29288688 1.5680457
0.67487836 0.29030153 1.5611413
0.68069643 0.29030153 1.55325
0.68302077 0.28882414 1.55325
0.68572634 0.28753147 1.5463446
0.69148886 0.28753147 1.5463446
0.69725138 0.28753147 1.5394387
0.70301396 0.28753147 1.5394387
0.711963 0.28882414 1.5463446
0.71775144 0.28882414 1.55325
0.72724086 0.29030153 1.55325
0.73632318 0.29159421 1.5680457
0.74545729 0.29288688 1.5680457
0.74801111 0.29159421 1.5680457
0.75051314 0.29030153 1.5611413
0.75248212 0.28882414 1.55325
0.75148302 0.28623876 1.5325326
0.75379997 0.28494608 1.5256261
0.7595107 0.28494608 1.5256261
0.76174992 0.28365338 1.5256261
0.76093954 0.28125265 1.5127983
0.76657623 0.28125265 1.4861517
0.73266423 0.26684842 1.429877
0.73494786 0.26574036 1.4239517
0.73718703 0.26463237 1.4180262
0.74249065 0.26463237 1.4180262
0.74779427 0.26463237 1.4180262
nan nan -inf
nan nan -inf
nan nan -inf
nan nan -inf
nan nan -inf
nan nan -inf
nan nan -inf
nan nan -inf
nan nan -inf
nan nan -inf
nan nan -inf
nan nan -inf
nan nan -inf
nan nan -inf
nan nan -inf
nan nan -inf
nan nan -inf
nan nan -inf
nan nan -inf
-0.7097047 0.22711444 1.1955955
-0.7052412 0.22711444 1.1955955
-0.70310205 0.22786774 1.2035116
-0.70093328 0.22862099 1.2035116
-0.69644022 0.22862099 1.2035116
-0.68966722 0.22786774 1.2035116
-0.68292379 0.22711444 1.1995536
-0.67846036 0.22711444 1.1995536
-0.6762324 0.22786774 1.2035116
-0.67397475 0.22862099 1.2035116
-0.66948169 0.22862099 1.2074693
-0.66498864 0.22862099 1.2074693
-0.66049552 0.22862099 1.2074693
-0.65600246 0.22862099 1.2074693
-0.65419269 0.2295626 1.2074693
-0.65181303 0.23031589 1.2124164
-0.64728659 0.23031589 1.2124164
-0.64065796 0.2295626 1.2074693
-0.63614631 0.2295626 1.2074693
-0.63370746 0.23031589 1.2124164
-0.62918103 0.23031589 1.216374
-0.62669766 0.23106916 1.216374
-0.62215644 0.23106916 1.216374
-0.61761522 0.23106916 1.216374
-0.61307406 0.23106916 1.216374
-0.60853285 0.23106916 1.216374
-0.60399169 0.23106916 1.216374
-0.59749627 0.23031589 1.216374
-0.59296995 0.23031589 1.216374
-0.58651888 0.2295626 1.2124164
-0.58200735 0.2295626 1.2124164
-0.57749575 0.2295626 1.2124164
-0.57298416 0.2295626 1.2124164
-0.56847256 0.2295626 1.2124164
-0.56396097 0.2295626 1.2124164
-0.55944937 0.2295626 1.2124164
-0.55493784 0.2295626 1.2074693
-0.54816848 0.22862099 1.2074693
-0.54367548 0.22862099 1.2074693
-0.53918236 0.22862099 1.2074693
-0.53468925 0.22862099 1.2074693
-0.53019625 0.22862099 1.2074693
-0.52570313 0.22862099 1.2074693
-0.52121001 0.22862099 1.2074693
-0.51671696 0.22862099 1.2074693
-0.5122239 0.22862099 1.2074693
-0.50982195 0.2295626 1.2124164
-0.50531036 0.2295626 1.2035116
-0.50079876 0.2295626 1.2035116
-0.4962872 0.2295626 1.2074693
-0.4917756 0.2295626 1.2124164
-0.48726404 0.2295626 1.2074693
-0.48275241 0.2295626 1.2074693
-0.47824085 0.2295626 1.2124164
-0.47372925 0.2295626 1.2124164
-0.46921769 0.2295626 1.2074693
-0.46470609 0.2295626 1.2074693
-0.4601945 0.2295626 1.2074693
-0.4556829 0.2295626 1.2124164
-0.45265183 0.23031589 1.2124164
-0.44812542 0.23031589 1.216374
-0.44359905 0.23031589 1.216374
-0.43907267 0.23031589 1.216374
-0.43454626 0.23031589 1.216374
-0.43142629 0.23106916 1.2203314
-0.42862463 0.23201077 1.2252779
-0.42406493 0.23201077 1.2252779
-0.53255373 0.29453316 1.5463446
-0.52676529 0.29453316 1.5463446
-0.52097684 0.29453316 1.55325
-0.51782364 0.29603973 1.5611413
-0.51656544 0.29867619 1.5749497
-0.51552558 0.30150098 1.5897427
-0.51437467 0.30432582 1.6045339
-0.51091057 0.30583239 1.6124215
-0.50956357 0.3086572 1.6272098
-0.50841272 0.3116703 1.6429815
-0.51230282 0.31788486 1.6755041
-0.51115203 0.32108635 1.6922545
-0.5098753 0.32428777 1.7001363
-0.51110435 0.32918411 1.7257479
-0.50723314 0.330879 1.7346122
-0.50871015 0.33615196 1.7621855
-0.5099799 0.34142491 1.7986112
-0.50882167 0.34519133 1.818296
-0.50477654 0.34707457 1.818296
-0.50335926 0.35084099 1.8478168
-0.50179392 0.35460737 1.8478168
-0.50875247 0.36458835 1.9196185
-0.50158721 0.36458835 1.9196185
-0.49723116 0.36665988 1.9196185
-0.49304539 0.3689197 1.9422315
-0.49720219 0.37758246 1.987444
-0.48978156 0.37758246 1.987444
-0.48236099 0.37758246 1.987444
-0.47754598 0.37965399 1.998253
-0.5059939 0.40865535 2.1357317
-0.49796262 0.40865535 2.1357317
-0.49625298 0.4139283 2.1632075
-0.49433616 0.41920128 2.1769428
-0.48937321 0.42202607 2.2044086
-0.48107913 0.42202607 2.2044086
-0.48227876 0.43050051 2.2338288
-0.50407952 0.45799527 2.2485356
-0.4950785 0.45799527 2.4062715
-0.48607752 0.45799527 2.3896267
-0.53828049 0.51675123 2.3896267
-0.51984876 0.50865352 2.6693237
-0.50985223 0.50865352 2.6693237
-0.49985567 0.50865352 2.6693237
-0.48605058 0.50469875 2.6488104
-0.47613171 0.50469875 2.6488104
-0.4662129 0.50469875 2.6488104
-0.4598695 0.50865352 2.6488104
-0.44987294 0.50865352 2.6488104
-0.43987638 0.50865352 2.6488104
-0.42987984 0.50865352 2.6488104
-0.41661873 0.50469875 2.6488104
-0.40351307 0.50074404 2.628293
-0.39367196 0.50074404 2.628293
-0.38383088 0.50074404 2.628293
-0.37398976 0.50074404 2.628293
-0.36414865 0.50074404 2.628293
-0.34884438 0.49302289 2.5686741
-0.33915502 0.49302289 2.5686741
-0.33210841 0.4969776 2.5882249
nan nan 2.5686741
nan nan 1.818296
nan nan 1.818296
nan nan 1.7986112
nan nan 1.818296
nan nan 1.818296
-0.18418746 0.34707457 1.818296
-0.17736641 0.34707457 1.818296
-0.16961999 0.34519133 1.818296
-0.16283596 0.34519133 1.7986112
-0.15690328 0.34707457 1.7986112
-0.22174385 0.51279652 1.7986112
-0.21166588 0.51279652 2.6693237
-0.1999592 0.50865352 2.6693237
-0.18996267 0.50865352 2.6693237
-0.17996611 0.50865352 2.6488104
-0.16996956 0.50865352 2.6488104
-0.15997301 0.50865352 2.6488104
-0.15119804 0.51279652 2.6693237
-0.14112008 0.51279652 2.6693237
-0.13104211 0.51279652 2.6693237
-0.12096413 0.51279652 2.5882249
-0.1074655 0.4969776 2.5882249
-0.097698413 0.4969776 2.5882249
-0.087931328 0.4969776 2.5882249
-0.078164242 0.4969776 2.5882249
-0.068397157 0.4969776 2.5882249
-0.058630072 0.4969776 2.5882249
-0.049622137 0.50469875 2.628293
-0.03970331 0.50469875 2.6488104
-0.030017866 0.50865352 2.6693237
-0.020021318 0.50865352 2.6693237
-0.010024768 0.50865352 2.6488104
-2.8219019e-05 0.50865352 2.6488104
0.010049524 0.51279652 2.6693237
0.020127498 0.51279652 2.6693237
0.030205468 0.51279652 2.69081
0.040283442 0.51279652 2.69081
0.050361414 0.51279652 2.69081
0.060439385 0.51279652 2.69081
0.070517361 0.51279652 2.69081
0.080595337 0.51279652 2.6693237
0.090673305 0.51279652 2.6693237
0.10075127 0.51279652 2.6693237
0.11082926 0.51279652 2.6693237
0.11993038 0.50865352 2.6693237
0.12992692 0.50865352 2.6488104
0.13992347 0.50865352 2.628293
0.14875442 0.50469875 2.628293
0.15867324 0.50469875 2.6488104
0.16859207 0.50469875 2.628293
0.1771121 0.50074404 2.628293
0.18695322 0.50074404 2.628293
0.19679432 0.50074404 2.628293
0.20663543 0.50074404 2.628293
0.2181862 0.50469875 2.6488104
0.22810502 0.50469875 2.6488104
0.23802388 0.50469875 2.6488104
0.25192088 0.51279652 2.6488104
0.25988206 0.50865352 2.6488104
0.2698786 0.50865352 2.6488104
0.27987516 0.50865352 2.6693237
0.28987169 0.50865352 2.6693237
0.30231073 0.51279652 2.6693237
0.31479785 0.51675123 2.69081
0.32767728 0.52108264 2.7113156
0.3379181 0.52108264 2.69081
0.33985448 0.50865352 2.6488104
0.34985101 0.50865352 2.6488104
0.35984758 0.50865352 2.6488104
0.36984411 0.50865352 2.628293
0.37984064 0.50865352 2.628293
0.39301249 0.51279652 2.628293
0.40309048 0.51279652 2.6693237
0.41984466 0.52108264 2.69081
0.43008548 0.52108264 2.7113156
0.4403263 0.52108264 2.628293
0.43981993 0.50865352 2.6693237
0.4498165 0.50865352 2.6488104
0.45981306 0.50865352 2.6693237
0.46980962 0.50865352 2.6693237
0.48371425 0.51279652 2.6693237
0.49379221 0.51279652 2.6693237
0.50387019 0.51279652 2.6488104
0.51394814 0.51279652 2.6488104
0.51979238 0.50865352 2.6488104
0.52566987 0.50469875 2.6488104
0.53558868 0.50469875 2.6488104
0.55426002 0.51279652 2.6488104
0.55977851 0.50865352 2.6488104
0.5697751 0.50865352 2.6693237
0.58449399 0.51279652 2.6693237
0.58976823 0.50865352 2.6693237
0.5997647 0.50865352 2.6488104
0.60502052 0.50469875 2.6488104
0.61493927 0.50469875 2.6488104
0.62975442 0.50865352 2.6488104
0.63477695 0.50469875 2.6488104
0.64469582 0.50469875 2.6488104
0.65974402 0.50865352 2.6693237
0.66974062 0.50865352 2.6693237
0.67973715 0.50865352 2.6693237
0.68973368 0.50865352 2.6693237
0.69973028 0.50865352 2.6488104
0.70420879 0.50469875 2.628293
0.7141276 0.50469875 2.628293
0.72404641 0.50469875 2.6488104
0.73971647 0.50865352 2.6488104
0.74971294 0.50865352 2.6693237
0.75970954 0.50865352 2.6693237
0.76970607 0.50865352 2.6488104
0.77364057 0.50469875 2.6488104
0.78355932 0.50469875 2.6488104
0.79347819 0.50469875 2.6488104
0.79710174 0.50074404 2.628293
0.80694282 0.50074404 2.628293
0.82323468 0.50469875 2.6087494
0.83315355 0.50469875 2.6087494
0.8430723 0.50469875 2.6087494
0.83994162 0.4969776 2.5882249
0.84970868 0.4969776 2.5882249
0.85947579 0.4969776 2.5882249
0.86924285 0.4969776 2.5882249
0.87900996 0.4969776 2.5882249
0.89551276 0.50074404 2.6087494
0.91250414 0.50469875 2.628293
0.92242295 0.50469875 2.628293
0.92503607 0.50074404 2.628293
0.93487716 0.50074404 2.628293
0.9447183 0.50074404 2.628293
0.9620983 0.50469875 2.628293
0.97201711 0.50469875 2.628293
0.97424161 0.50074404 2.5882249
0.9840827 0.50074404 2.5882249
0.99392378 0.50074404 2.5882249
0.6160754 0.30733895 1.6124215
0.62211543 0.30733895 1.6124215
0.63392907 0.31016374 1.6124215
0.63691592 0.3086572 1.6203088
0.64023584 0.30733895 1.6203088
0.64310795 0.30583239 1.6124215
0.64911842 0.30583239 1.6124215
0.65512896 0.30583239 1.6124215
0.66113943 0.30583239 1.6124215
0.66715002 0.30583239 1.6124215
0.67316049 0.30583239 1.6124215
0.67582536 0.30432582 1.6045339
0.67547762 0.30150098 1.5897427
0.67203957 0.29735798 1.5680457
0.67487836 0.29603973 1.5611413
0.68069643 0.29603973 1.55325
0.68302077 0.29453316 1.55325
0.68880922 0.29453316 1.5463446
0.69459766 0.29453316 1.5463446
0.69725138 0.29321492 1.5463446
0.70301396 0.29321492 1.5463446
0.711963 0.29453316 1.55325
0.72142285 0.29603973 1.55325
0.73047924 0.29735798 1.5611413
0.73958743 0.29867619 1.5680457
0.74545729 0.29867619 1.5680457
0.74801111 0.29735798 1.5680457
0.75051314 0.29603973 1.55325
0.75248212 0.29453316 1.55325
0.75148302 0.29189664 1.5325326
0.75379997 0.29057842 1.5256261
0.75606507 0.28926018 1.5256261
0.76174992 0.28926018 1.518719
0.76393729 0.28794193 1.5127983
0.76959622 0.28794193 1.5127983
0.73266423 0.27212304 1.429877
0.73494786 0.27099311 1.4239517
0.74027365 0.27099311 1.4180262
0.74249065 0.26986319 1.4180262
0.74779427 0.26986319 1.4239517
nan nan -inf
nan nan -inf
nan nan -inf
nan nan -inf
nan nan -inf
nan nan -inf
nan nan -inf
nan nan -inf
nan nan -inf
nan nan -inf
nan nan -inf
nan nan -inf
nan nan -inf
nan nan -inf
nan nan -inf
nan nan -inf
nan nan -inf
nan nan -inf
nan nan -inf
-0.7120586 0.23228453 1.2035116
-0.70758039 0.23228453 1.2035116
-0.70310205 0.23228453 1.2035116
-0.70093328 0.23305242 1.2035116
-0.69644022 0.23305242 1.2035116
-0.68966722 0.23228453 1.1995536
-0.68292379 0.23151663 1.1955955
-0.67846036 0.23151663 1.1955955
-0.6762324 0.23228453 1.1995536
-0.67397475 0.23305242 1.2035116
-0.66948169 0.23305242 1.2074693
-0.66498864 0.23305242 1.2074693
-0.66049552 0.23305242 1.2035116
-0.65600246 0.23305242 1.2035116
-0.6515094 0.23305242 1.2035116
-0.64968115 0.23401225 1.2074693
-0.64728659 0.23478016 1.2074693
-0.64065796 0.23401225 1.2074693
-0.63614631 0.23401225 1.2074693
-0.63163477 0.23401225 1.2124164
-0.62918103 0.23478016 1.216374
-0.62669766 0.23554802 1.216374
-0.62215644 0.23554802 1.216374
-0.61761522 0.23554802 1.216374
-0.61107546 0.23478016 1.2124164
-0.60654908 0.23478016 1.2124164
-0.60202271 0.23478016 1.2124164
-0.59749627 0.23478016 1.216374
-0.59296995 0.23478016 1.216374
-0.58844352 0.23478016 1.216374
-0.58391714 0.23478016 1.2124164
-0.5793907 0.23478016 1.2124164
-0.57486439 0.23478016 1.216374
-0.57033795 0.23478016 1.2124164
-0.56581157 0.23478016 1.2124164
-0.5612852 0.23478016 1.2124164
-0.55493784 0.23401225 1.2074693
-0.54816848 0.23305242 1.2074693
-0.54367548 0.23305242 1.2074693
-0.53918236 0.23305242 1.2074693
-0.53468925 0.23305242 1.2074693
-0.53019625 0.23305242 1.2074693
-0.52570313 0.23305242 1.2074693
-0.52121001 0.23305242 1.2074693
-0.51671696 0.23305242 1.2074693
-0.5122239 0.23305242 1.2074693
-0.50982195 0.23401225 1.2124164
-0.50531036 0.23401225 1.2124164
-0.50079876 0.23401225 1.2074693
-0.4962872 0.23401225 1.2074693
-0.4917756 0.23401225 1.2074693
-0.48726404 0.23401225 1.2074693
-0.48275241 0.23401225 1.2074693
-0.47824085 0.23401225 1.2124164
-0.47372925 0.23401225 1.2124164
-0.46921769 0.23401225 1.2074693
-0.4628 0.23305242 1.2074693
-0.45830691 0.23305242 1.2074693
-0.4556829 0.23401225 1.2124164
-0.45265183 0.23478016 1.2124164
-0.44812542 0.23478016 1.2124164
-0.44359905 0.23478016 1.216374
-0.43907267 0.23478016 1.216374
-0.43454626 0.23478016 1.216374
-0.43142629 0.23554802 1.2203314
-0.42862463 0.23650788 1.2203314
-0.42544177 0.23727576 1.2203314
-0.53255373 0.30024216 1.5463446
-0.52676529 0.30024216 1.5463446
-0.52097684 0.30024216 1.55325
-0.51782364 0.30177793 1.5611413
-0.51428545 0.30312169 1.5680457
-0.51327151 0.30600125 1.5828396
-0.51214659 0.30888081 1.5976315
-0.51342738 0.31329614 1.6124215
-0.51205075 0.3161757 1.6350958
-0.51087028 0.31924725 1.6429815
-0.51230282 0.32404652 1.6676207
-0.51115203 0.32731003 1.6833869
-0.50721049 0.3288458 1.7001363
-0.5084728 0.333837 1.7257479
-0.50463492 0.33556476 1.7257479
-0.5007304 0.33729249 1.7346122
-0.5099799 0.34804285 1.789752
-0.50882167 0.35188225 1.818296
-0.50477654 0.353802 1.818296
-0.50335926 0.3576414 1.8379774
-0.50179392 0.3614808 1.8576553
-0.50875247 0.37165526 1.9196185
-0.50158721 0.37165526 1.9196185
-0.49723116 0.37376693 1.930434
-0.49304539 0.37607056 1.9422315
-0.49720219 0.38490126 1.9422315
-0.48978156 0.38490126 1.987444
-0.48236099 0.38490126 1.987444
-0.47494036 0.38490126 1.987444
-0.51252288 0.42195156 2.109231
-0.50438792 0.42195156 2.1632075
-0.49941382 0.42463914 2.1769428
-0.49433616 0.42732674 2.1906765
-0.48937321 0.4302063 2.2044086
-0.48429921 0.43308589 2.2338288
-0.48227876 0.43884501 2.2338288
-0.47381815 0.43884501 2.2485356
-0.48143944 0.45401067 2.2936256
-0.54843616 0.52676755 2.6488104
-0.53828049 0.52676755 2.6488104
-0.51580703 0.51448143 2.6488104
-0.50588822 0.51448143 2.6488104
-0.49596938 0.51448143 2.6488104
-0.48605058 0.51448143 2.6488104
-0.47613171 0.51448143 2.6488104
-0.4662129 0.51448143 2.628293
-0.45629406 0.51448143 2.628293
-0.44637522 0.51448143 2.628293
-0.43645641 0.51448143 2.628293
-0.42987984 0.51851279 2.6488104
-0.41661873 0.51448143 2.628293
-0.40351307 0.51045007 2.628293
-0.39367196 0.51045007 2.6087494
-0.38383088 0.51045007 2.6087494
-0.37117675 0.50661063 2.6087494
-0.36140966 0.50661063 2.5882249
-0.34884438 0.50257921 2.5686741
-0.33915502 0.50257921 2.5686741
-0.32946566 0.50257921 2.5686741
nan nan 2.5315185
-0.21829268 0.353802 1.818296
-0.21032418 0.35188225 1.808454
-0.20354016 0.35188225 1.7986112
-0.19675612 0.35188225 1.7986112
-0.1889357 0.34996256 1.7986112
-0.18218867 0.34996256 1.808454
-0.17544164 0.34996256 1.808454
-0.16961999 0.35188225 1.808454
-0.16283596 0.35188225 1.7986112
-0.15690328 0.353802 1.7986112
-0.15008223 0.353802 1.7986112
-0.21166588 0.52273619 1.7986112
-0.20158792 0.52273619 2.628293
-0.18996267 0.51851279 2.628293
-0.17996611 0.51851279 2.628293
-0.16996956 0.51851279 2.628293
-0.15997301 0.51851279 2.628293
-0.14997646 0.51851279 2.6693237
-0.13997991 0.51851279 2.6693237
-0.13104211 0.52273619 2.6488104
-0.11812104 0.51045007 2.5882249
-0.1074655 0.50661063 2.5882249
-0.097698413 0.50661063 2.5882249
-0.088597722 0.51045007 2.5882249
-0.078164242 0.50661063 2.5882249
-0.068397157 0.50661063 2.5882249
-0.058630072 0.50661063 2.5882249
-0.049622137 0.51448143 2.628293
-0.03970331 0.51448143 2.628293
-0.029784482 0.51448143 2.6488104
-0.019865656 0.51448143 2.6488104
-0.0099468268 0.51448143 2.6488104
-2.799962e-05 0.51448143 2.6488104
0.0099683302 0.51851279 2.6488104
0.019964879 0.51851279 2.6488104
0.030205468 0.52273619 2.6693237
0.040283442 0.52273619 2.6693237
0.050361414 0.52273619 2.6693237
0.059951078 0.51851279 2.6693237
0.06994763 0.51851279 2.6488104
0.079944178 0.51851279 2.6488104
0.089940719 0.51851279 2.6488104
0.099937275 0.51851279 2.6488104
0.10993382 0.51851279 2.6488104
0.11899793 0.51448143 2.628293
0.12891676 0.51448143 2.628293
0.13883559 0.51448143 2.628293
0.14758879 0.51045007 2.628293
0.15742989 0.51045007 2.6087494
0.167271 0.51045007 2.6087494
0.1771121 0.51045007 2.6087494
0.18695322 0.51045007 2.6087494
0.19679432 0.51045007 2.6087494
0.20663543 0.51045007 2.628293
0.21647653 0.51045007 2.628293
0.22631763 0.51045007 2.628293
0.23802388 0.51448143 2.6087494
0.2479427 0.51448143 2.6087494
0.25786152 0.51448143 2.628293
0.26778036 0.51448143 2.628293
0.27987516 0.51851279 2.6488104
0.28987169 0.51851279 2.6488104
0.29986826 0.51851279 2.6488104
0.31238869 0.52273619 2.69081
0.32246667 0.52273619 2.6693237
0.32985792 0.51851279 2.6693237
0.33721212 0.51448143 2.6488104
0.34713095 0.51448143 2.6488104
0.35425201 0.51045007 2.6087494
0.3640931 0.51045007 2.5882249
0.37112162 0.50661063 2.5686741
0.3808887 0.50661063 2.5686741
0.40309048 0.52273619 2.5686741
0.41635481 0.52676755 2.5686741
0.43008548 0.53118289 2.628293
0.42648157 0.51448143 2.628293
0.43640041 0.51448143 2.628293
0.44631925 0.51448143 2.628293
0.45623806 0.51448143 2.6488104
0.4661569 0.51448143 2.6488104
0.47980618 0.51851279 2.6488104
0.49379221 0.52273619 2.6488104
0.50387019 0.52273619 2.6488104
0.51394814 0.52273619 2.6488104
0.51979238 0.51851279 2.6488104
0.52566987 0.51448143 2.6488104
0.53558868 0.51448143 2.6488104
0.54978204 0.51851279 2.6488104
0.55977851 0.51851279 2.6488104
0.5697751 0.51851279 2.6693237
0.57526398 0.51448143 2.6488104
0.58518285 0.51448143 2.6488104
0.59510165 0.51448143 2.628293
0.60027957 0.51045007 2.628293
0.61012071 0.51045007 2.6087494
0.61996186 0.51045007 2.6087494
0.63477695 0.51448143 2.6488104
0.64469582 0.51448143 2.6488104
0.65461463 0.51448143 2.6488104
0.66453344 0.51448143 2.6488104
0.67445225 0.51448143 2.6488104
0.68437111 0.51448143 2.628293
0.69428992 0.51448143 2.628293
0.70420879 0.51448143 2.628293
0.7141276 0.51448143 2.628293
0.72404641 0.51448143 2.628293
0.73971647 0.51851279 2.6488104
0.74971294 0.51851279 2.6488104
0.7538029 0.51448143 2.6488104
0.7637217 0.51448143 2.6488104
0.77364057 0.51448143 2.628293
0.78355932 0.51448143 2.628293
0.79347819 0.51448143 2.628293
0.79710174 0.51045007 2.628293
0.80694282 0.51045007 2.628293
0.81064039 0.50661063 2.6087494
0.82040751 0.50661063 2.6087494
0.83017457 0.50661063 2.6087494
0.83994162 0.50661063 2.5882249
0.84294713 0.50257921 2.5882249
0.85263652 0.50257921 2.5882249
0.86924285 0.50661063 2.5882249
0.87900996 0.50661063 2.5882249
0.89551276 0.51045007 2.6087494
0.91250414 0.51448143 2.6087494
0.91519493 0.51045007 2.628293
0.92503607 0.51045007 2.628293
0.93487716 0.51045007 2.628293
0.9447183 0.51045007 2.628293
0.95455945 0.51045007 2.628293
0.97201711 0.51448143 2.6087494
0.95921952 0.50257921 2.5882249
0.96890879 0.50257921 2.5882249
0.97859824 0.50257921 2.5882249
0.62173784 0.3161757 1.6203088
0.62783349 0.3161757 1.6203088
0.63392907 0.3161757 1.6272098
0.63691592 0.31463996 1.6203088
0.64023584 0.31329614 1.6203088
0.64627594 0.31329614 1.6203088
0.65231609 0.31329614 1.6203088
0.65835619 0.31329614 1.6203088
0.66113943 0.31176037 1.6124215
0.66715002 0.31176037 1.6124215
0.67316049 0.31176037 1.6124215
0.67582536 0.31022465 1.6045339
0.67547762 0.30734506 1.5897427
0.67203957 0.30312169 1.5680457
0.67487836 0.30177793 1.5611413
0.68069643 0.30177793 1.55325
0.68302077 0.30024216 1.55325
0.68880922 0.30024216 1.55325
0.69459766 0.30024216 1.55325
0.70038611 0.30024216 1.5463446
0.70617455 0.30024216 1.5463446
0.71560478 0.30177793 1.55325
0.7246353 0.30312169 1.5611413
0.73371756 0.3044655 1.5611413
0.73958743 0.3044655 1.5680457
0.74545729 0.3044655 1.5680457
0.74801111 0.30312169 1.55325
0.74669373 0.30024216 1.55325
0.74911427 0.29889837 1.5463446
0.75148302 0.29755455 1.5325326
0.75038028 0.29486698 1.5256261
0.75606507 0.29486698 1.5256261
0.76174992 0.29486698 1.518719
0.76393729 0.29352316 1.5127983
0.73385954 0.27989325 1.4486382
0.73266423 0.27739766 1.429877
0.73494786 0.2762458 1.4239517
0.73718703 0.275094 1.4180262
0.74249065 0.275094 1.4180262
0.74779427 0.275094 1.4239517
nan nan -inf
nan nan -inf
nan nan -inf
nan nan -inf
nan nan -inf
nan nan -inf
nan nan -inf
nan nan -inf
nan nan -inf
nan nan -inf
nan nan -inf
nan nan -inf
nan nan -inf
nan nan -inf
nan nan -inf
nan nan -inf
nan nan -inf
nan nan -inf
nan nan -inf
-0.7120586 0.23670134 1.2035116
-0.70758039 0.23670134 1.2035116
-0.70310205 0.23670134 1.2035116
-0.70093328 0.23748383 1.2035116
-0.69644022 0.23748383 1.2035116
-0.68966722 0.23670134 1.1995536
-0.68292379 0.23591883 1.1955955
-0.67846036 0.23591883 1.1955955
-0.67846787 0.23748383 1.1995536
-0.67397475 0.23748383 1.2035116
-0.66948169 0.23748383 1.2035116
-0.66498864 0.23748383 1.2074693
-0.66049552 0.23748383 1.2035116
-0.65600246 0.23748383 1.2035116
-0.6515094 0.23748383 1.2035116
-0.64968115 0.23846193 1.2074693
-0.64728659 0.23924443 1.2074693
-0.64065796 0.23846193 1.2074693
-0.63614631 0.23846193 1.2124164
-0.63163477 0.23846193 1.2124164
-0.62918103 0.23924443 1.216374
-0.62669766 0.24002691 1.2203314
-0.62215644 0.24002691 1.216374
-0.61761522 0.24002691 1.216374
-0.61107546 0.23924443 1.2124164
-0.60654908 0.23924443 1.2124164
-0.60202271 0.23924443 1.2124164
-0.59749627 0.23924443 1.216374
-0.59296995 0.23924443 1.216374
-0.58844352 0.23924443 1.216374
-0.58391714 0.23924443 1.2124164
-0.5793907 0.23924443 1.2124164
-0.57486439 0.23924443 1.216374
-0.57033795 0.23924443 1.2124164
-0.56581157 0.23924443 1.2124164
-0.5612852 0.23924443 1.216374
-0.55493784 0.23846193 1.2124164
-0.54816848 0.23748383 1.2074693
-0.54367548 0.23748383 1.2074693
-0.53918236 0.23748383 1.2074693
-0.53468925 0.23748383 1.2074693
-0.53019625 0.23748383 1.2074693
-0.52570313 0.23748383 1.2074693
-0.52121001 0.23748383 1.2074693
-0.51501447 0.23670134 1.2035116
-0.51053619 0.23670134 1.2035116
-0.50982195 0.23846193 1.2124164
-0.50323772 0.23748383 1.2074693
-0.49874467 0.23748383 1.2074693
-0.49425155 0.23748383 1.2074693
-0.4917756 0.23846193 1.2074693
-0.48726404 0.23846193 1.2074693
-0.48275241 0.23846193 1.2074693
-0.47824085 0.23846193 1.2124164
-0.47372925 0.23846193 1.2074693
-0.46729305 0.23748383 1.2035116
-0.4628 0.23748383 1.2035116
-0.45830691 0.23748383 1.2035116
-0.4556829 0.23846193 1.2124164
-0.45265183 0.23924443 1.2124164
-0.44812542 0.23924443 1.2124164
-0.44359905 0.23924443 1.216374
-0.43907267 0.23924443 1.216374
-0.43454626 0.23924443 1.216374
-0.43142629 0.24002691 1.2203314
-0.42862463 0.241005 1.2203314
-0.42544177 0.24178748 1.2252779
-0.53255373 0.30595115 1.55325
-0.52676529 0.30595115 1.55325
-0.52097684 0.30595115 1.55325
-0.51782364 0.30751613 1.55325
-0.51428545 0.30888546 1.5680457
-0.51327151 0.31181976 1.5828396
-0.51214659 0.31475407 1.5976315
-0.51342738 0.31925339 1.6203088
-0.51205075 0.32218769 1.6350958
-0.51087028 0.32531765 1.6508666
-0.50987488 0.32864317 1.6676207
-0.50845385 0.33177313 1.6755041
-0.50721049 0.33509868 1.7001363
-0.50613362 0.33861983 1.7090025
-0.50203669 0.34018481 1.717868
-0.49816546 0.34194541 1.717868
-0.5099799 0.35466075 1.789752
-0.50882167 0.35857317 1.818296
-0.50477654 0.36052939 1.818296
-0.50335926 0.36444181 1.8379774
-0.51032144 0.37461409 1.8989679
-0.50875247 0.37872213 1.9196185
-0.50443715 0.38087398 1.930434
-0.49723116 0.38087398 1.930434
-0.49002525 0.38087398 1.930434
-0.48281926 0.38087398 1.930434
-0.51054531 0.40884775 1.9422315
-0.50281012 0.40884775 2.0218327
-0.52065778 0.42997482 2.0463898
-0.51252288 0.42997482 2.0837059
-0.50438792 0.42997482 2.1494706
-0.49941382 0.43271351 2.1906765
-0.49433616 0.43545225 2.2044086
-0.49264878 0.44132087 2.2191195
-0.48429921 0.44132087 2.2338288
-0.48227876 0.44718948 2.2485356
-0.48355982 0.45638365 2.2632411
-0.48143944 0.46264353 2.2936256
-0.47268644 0.46264353 2.3406568
-0.52160639 0.52015609 2.3729794
-0.51176524 0.52015609 2.6087494
-0.5019241 0.52015609 2.628293
-0.49208304 0.52015609 2.628293
-0.48605058 0.5242641 2.628293
-0.47613171 0.5242641 2.6488104
-0.4662129 0.5242641 2.628293
-0.45629406 0.5242641 2.628293
-0.44637522 0.5242641 2.628293
-0.43645641 0.5242641 2.628293
-0.42653757 0.5242641 2.628293
-0.41661873 0.5242641 2.628293
-0.40351307 0.52015609 2.628293
-0.39071092 0.51624364 2.6087494
-0.38094383 0.51624364 2.5882249
-0.37117675 0.51624364 2.5882249
-0.35853374 0.51213562 2.5882249
-0.34884438 0.51213562 2.5686741
-0.33915502 0.51213562 2.5686741
-0.32946566 0.51213562 2.5686741
-0.3197763 0.51213562 2.5129359
-0.21829268 0.36052939 1.818296
-0.21032418 0.35857317 1.808454
-0.20354016 0.35857317 1.7986112
-0.19675612 0.35857317 1.7986112
-0.18789929 0.35466075 1.7986112
-0.18118927 0.35466075 1.7986112
-0.17447926 0.35466075 1.7986112
-0.16776925 0.35466075 1.7986112
-0.16283596 0.35857317 1.7986112
-0.15605192 0.35857317 1.7986112
-0.14926788 0.35857317 1.7986112
-0.14248386 0.35857317 1.808454
-0.1999592 0.52837217 1.818296
-0.18996267 0.52837217 2.6087494
-0.17996611 0.52837217 2.6087494
-0.166068 0.51624364 2.6087494
-0.15630092 0.51624364 2.6087494
-0.14764436 0.52015609 2.628293
-0.13780326 0.52015609 2.628293
-0.12796214 0.52015609 2.628293
-0.11723258 0.51624364 2.5882249
-0.1074655 0.51624364 2.5882249
-0.097698413 0.51624364 2.5882249
-0.087931328 0.51624364 2.5882249
-0.078164242 0.51624364 2.5882249
-0.068397157 0.51624364 2.5882249
-0.058630072 0.51624364 2.5882249
-0.049233302 0.52015609 2.6087494
-0.039392199 0.52015609 2.6087494
-0.029551094 0.52015609 2.628293
-0.019865656 0.5242641 2.628293
-0.0099468268 0.5242641 2.628293
-2.799962e-05 0.5242641 2.628293
0.0098908283 0.5242641 2.628293
0.019809654 0.5242641 2.628293
0.029728482 0.5242641 2.628293
0.039647311 0.5242641 2.628293
0.04995453 0.52837217 2.6488104
0.059484966 0.5242641 2.6488104
0.069403797 0.5242641 2.628293
0.079322621 0.5242641 2.628293
0.089241445 0.5242641 2.628293
0.099160276 0.5242641 2.6488104
0.1090791 0.5242641 2.6488104
0.11806548 0.52015609 2.628293
0.12790659 0.52015609 2.6087494
0.13774769 0.52015609 2.6087494
0.14647868 0.51624364 2.6087494
0.15624577 0.51624364 2.5882249
0.16601285 0.51624364 2.5882249
0.17577994 0.51624364 2.5882249
0.18554702 0.51624364 2.5882249
0.19679432 0.52015609 2.6087494
0.20663543 0.52015609 2.628293
0.21647653 0.52015609 2.628293
0.22461535 0.51624364 2.6087494
0.23438244 0.51624364 2.6087494
